# .PCD v0.7 - Point Cloud Data file format
VERSION 0.7
FIELDS x y z intensity
SIZE 4 4 4 4
TYPE F F F F
COUNT 1 1 1 1
WIDTH 1261
HEIGHT 1
VIEWPOINT 0 0 0 1 0 0 0
POINTS 1261
DATA ascii
18.829695 12.710877 0.2744728 32.327137
19.253626 12.689243 0.2271193 15.5
19.538576 12.676165 0.23204336 43.791664
20.161446 12.775583 0.29693094 23.25
22.086151 12.714677 0.24397077 72.335472
3.1123586 12.924981 0.30548126 48.32143
10.328697 12.920779 0.26072297 47.299999
18.824669 12.906072 0.29019946 34.496315
19.161591 12.839225 0.36969468 11
19.57262 12.909066 0.33773702 30.625
19.660049 12.932777 0.22197095 6
19.869452 12.816923 0.28200704 26.375
21.382111 12.926787 0.27196074 47.563984
21.501656 12.917773 0.29028898 112.36162
21.70092 12.889725 0.2828463 103.33469
21.902594 12.875515 0.2835398 89.172752
22.049461 12.850009 0.25899842 77.250557
29.965544 12.894347 0.27127397 17
30.001884 12.97312 0.39345372 16
2.5868511 13.178976 0.2997576 108.5
2.6611032 13.082865 0.34138936 94
2.924181 13.145017 0.31886438 53.333332
3.1243105 13.104741 0.2931428 21.210526
10.318789 13.084688 0.29237777 54.900002
18.791512 13.145162 0.32042795 20.5
18.819485 13.108847 0.2773416 31.542856
19.459852 13.021488 0.22715214 36.833332
21.372 13.10225 0.28493536 39.178322
24.899647 13.160532 0.28663558 3.5
28.684975 13.10581 0.28913796 122.5
28.802753 13.003684 0.31228185 32
29.441057 13.035413 0.24497828 23
2.5322456 13.299784 0.26236901 72
2.7207804 13.231858 0.27363741 124.52778
2.9032195 13.248725 0.31296664 118.85714
3.1614189 13.200898 0.32596448 2
10.134464 13.238951 0.23432845 57
10.325418 13.268187 0.26614174 68.666664
18.793308 13.323307 0.24394956 9.5
18.81419 13.300577 0.27158806 35.630608
19.577696 13.352276 0.24937505 36
19.974079 13.260576 0.2454901 43.375
20.274868 13.201508 0.34098491 44
21.139557 13.337964 0.26899579 23.5
21.362112 13.303117 0.28489658 41.726852
21.449179 13.373048 0.23247319 4
26.142365 13.222713 0.30876479 36.5
26.329964 13.227957 0.38073462 34
26.70512 13.246656 0.28073603 4
28.621681 13.297586 0.28943628 61
2.5643988 13.50885 0.34540176 80.888885
10.374469 13.495672 0.29627177 63.5
10.403776 13.483232 0.33636373 56
18.810806 13.505219 0.27898496 32.582497
19.234701 13.428299 0.24719197 4
19.518734 13.4427 0.32133353 34.740742
20.181381 13.587638 0.29261574 3
21.362095 13.458088 0.29050422 31.464697
21.497934 13.463354 0.2726815 73.158829
21.692471 13.482509 0.2806769 77.135498
21.891752 13.488461 0.26992622 86.786934
22.038866 13.526011 0.27222708 80.86927
2.5378058 13.678636 0.27784145 88
10.386107 13.700127 0.2121796 64.5
10.42038 13.784162 0.35362601 63
18.793968 13.726754 0.2812444 17.201727
18.80687 13.691359 0.29366121 37.605366
19.93857 13.653084 0.27175593 29.666666
22.060703 13.677797 0.27530682 57.497955
2.5673857 13.919209 0.32612777 90.875
10.174429 13.983698 0.29597884 5
10.381418 13.923134 0.30209479 53.222221
10.403298 13.88641 0.33017531 72.5
11.585992 13.978966 0.23910019 1
11.674196 13.896317 0.25947231 6
11.896769 13.876176 0.25034419 25
12.038648 13.885975 0.26147267 26.888887
14.580088 13.996715 0.31342024 14.625
14.672858 13.961709 0.29248077 21.39015
14.88053 13.962321 0.30131441 29.255209
15.079193 13.967331 0.27412438 27.265625
15.290944 13.957239 0.31044742 13.666666
18.791351 13.913282 0.26659602 22.734489
18.808083 13.88861 0.28151223 33.310802
19.194628 13.918994 0.38871256 6.5
19.511005 13.878628 0.30018497 43.4375
19.899563 13.935654 0.27147901 28.666666
20.230877 13.946504 0.23089969 15.75
22.060852 13.902614 0.24619709 50.768169
23.848963 13.878188 0.39012924 1
2.5652685 14.1447 0.3233808 71
2.6125298 14.12289 0.23495018 19
10.34426 14.10227 0.31119204 39.285713
10.535215 14.188484 0.34923247 21.5
10.691975 14.187447 0.23793741 39.166668
10.959325 14.192462 0.2611129 43
11.150991 14.196408 0.23868568 15.5
11.327904 14.189432 0.30839989 18.5
11.461905 14.158641 0.23815182 7
18.79019 14.098433 0.3011876 26.712635
18.802893 14.098852 0.30190167 39.180553
19.511459 14.195791 0.20515266 19
22.055037 14.102122 0.2908999 55.255348
2.5672677 14.3173 0.29611129 91.166664
2.610914 14.309152 0.32085657 59.583332
10.352276 14.234187 0.26711661 42.555557
10.500215 14.245307 0.31250754 101.79166
10.703148 14.235849 0.30824479 101.78571
10.878684 14.246454 0.31887811 100.5
11.268211 14.204413 0.23854254 44.333332
12.913995 14.269717 0.28404176 33
13.086806 14.264932 0.29804024 39.462967
13.283483 14.264076 0.30981633 53.25
13.490799 14.267862 0.36969736 55.375
13.703592 14.272192 0.32689971 44.433334
13.90656 14.280822 0.31136557 51.75
14.06114 14.280433 0.32300392 47.537037
14.292361 14.286786 0.29563594 35.535717
14.419228 14.263056 0.2811327 16.233334
15.771956 14.316761 0.33087498 0.5
15.934205 14.340415 0.30518809 33.638889
16.114613 14.344256 0.28813389 41.591667
16.312084 14.35058 0.27236122 52.464745
16.518156 14.359927 0.26683381 61.409092
16.708401 14.364249 0.27314809 45.602566
16.912086 14.366974 0.29317081 56.054295
17.113575 14.369435 0.28648084 46.867359
17.291985 14.378132 0.30172893 43.300346
17.485676 14.379836 0.29462919 44.684944
17.6987 14.373827 0.27564692 50.08514
17.898003 14.373229 0.30337933 49.149307
18.079445 14.377051 0.31379566 64.196968
18.317064 14.356433 0.33536944 59.756943
18.499701 14.352948 0.30866432 50.470833
18.748564 14.312603 0.28693345 33.656982
18.808647 14.302294 0.296538 20.515625
19.21314 14.314085 0.31906927 23.375
19.471457 14.216091 0.38922784 39
20.225042 14.384651 0.27280667 22.25
22.048532 14.278905 0.26615274 42.347538
2.5687294 14.508673 0.31483412 63.5
2.611424 14.517892 0.31221351 57.642857
17.576244 14.407322 0.25663185 36.75
17.773262 14.408405 0.24089172 37.75
17.926258 14.408078 0.27126595 32.229164
18.071726 14.407471 0.27341729 38.40625
18.295362 14.41142 0.26277009 64.691475
18.517532 14.416971 0.27634677 69.035316
18.743317 14.420541 0.27533278 46.174873
18.803577 14.437738 0.34168717 4
19.529114 14.576504 0.37211502 6
19.921066 14.42684 0.28385201 33.833332
22.041546 14.472168 0.25663409 37.145035
2.5618763 14.718903 0.2835533 80.35714
2.6167126 14.727229 0.28198317 62
19.06731 14.651315 0.22040945 7
19.380316 14.786298 0.24728167 43
19.451082 14.732357 0.26389593 46.375
20.284618 14.773154 0.35097858 23.138891
21.997021 14.709753 0.23093018 4.5
22.039902 14.694264 0.26888576 49.455173
2.5686147 14.898116 0.3239603 62.923077
2.6015749 14.97261 0.33525962 66
19.143856 14.964279 0.28092012 8
19.474516 14.817926 0.39869261 14
20.014566 14.842237 0.25261614 30.5
22.033941 14.902865 0.28996581 55.004253
2.5502884 15.09259 0.2726413 73.833336
2.6091661 15.103425 0.33304211 72
19.129236 15.046843 0.30584869 44
19.218269 15.083358 0.29550025 54
19.861279 15.121842 0.33872703 28.5
20.232979 15.198403 0.24811006 31.5
22.03322 15.095577 0.29987904 55.606705
2.5683239 15.278888 0.30186409 60.107143
19.191271 15.278814 0.28719631 34
19.52747 15.291332 0.27069646 9.75
19.911325 15.276795 0.20956224 16.25
20.17103 15.293695 0.27768153 23.333334
20.293501 15.239929 0.2902154 24.5
22.027504 15.281226 0.28287727 66.676506
2.5521209 15.521526 0.28262639 70.368423
19.316706 15.456958 0.34418654 37.483334
19.411263 15.411755 0.25973621 41.416664
19.684851 15.521877 0.33373782 14.958333
20.205652 15.523317 0.38125321 33
21.340197 15.515834 0.29528153 71.71814
21.507679 15.491387 0.29088113 115.25178
21.69105 15.480453 0.28581029 112.6284
21.915466 15.455182 0.27495706 106.91737
22.024281 15.511461 0.29923084 42.419643
22.23702 15.552732 0.34804949 1
2.5606148 15.725653 0.32489327 57.244446
2.6149373 15.760924 0.33407074 49
19.190191 15.654982 0.22380504 14
19.400631 15.65567 0.39524654 17.875
19.690702 15.680682 0.2497042 4.6666665
19.963125 15.713861 0.28925702 44.859257
20.126471 15.686429 0.25845256 14
21.306879 15.70287 0.2835561 38.474468
21.612682 15.623019 0.30590495 2
2.5278611 15.927432 0.29091766 94.050003
2.6024618 15.998917 0.24700576 59
19.266264 15.91588 0.34293148 34.75
20.005192 15.915899 0.38663396 46.541668
20.209703 15.891115 0.34601358 19.5
21.304152 15.890024 0.27645138 39.880131
2.5476956 16.12385 0.29572919 64.483337
19.179272 16.120886 0.27609873 10
19.3237 16.147804 0.34795362 35.5
19.426695 16.165998 0.36874598 14
19.641975 16.120018 0.26876312 4.5
20.258335 16.172155 0.29809123 15.75
21.300388 16.100376 0.30292448 35.297169
2.5216985 16.296633 0.25690114 90.8125
19.286531 16.223873 0.38866919 13
19.910261 16.292032 0.30886114 43.527782
20.030096 16.27603 0.37181365 17
21.293913 16.294888 0.29954636 37.541103
2.5269392 16.486452 0.26180008 77.454544
19.392185 16.497337 0.36326274 5.5
19.712072 16.540157 0.30527428 28
19.975147 16.536469 0.3892414 45.066666
20.297417 16.526184 0.31023988 23.25
21.288317 16.49542 0.30465379 35.852947
22.292711 16.528168 0.23714423 0.5
2.5214839 16.706392 0.31007919 69.36364
19.334156 16.748354 0.26076916 5
19.579281 16.752104 0.3494266 0
19.671085 16.725229 0.36795977 15
19.960983 16.796574 0.34889513 43.666668
20.149136 16.747463 0.31101695 12.5
21.281641 16.70746 0.29324856 40.571716
2.5320075 16.899569 0.2888816 67.571426
19.180691 16.846113 0.22686934 35.333332
19.295645 16.917021 0.29874474 35.444443
21.276657 16.911123 0.29971752 40.45174
2.5137749 17.097557 0.29200035 66
19.622099 17.161345 0.24052191 5.5
20.974104 17.061953 0.35868132 4
21.141975 17.137306 0.31477669 50.75
21.278208 17.120121 0.30189514 36.438568
2.5057447 17.331741 0.25503668 83
19.296888 17.372993 0.34087282 40.5
19.586672 17.274996 0.21819448 7
19.609093 17.346527 0.38547426 22.5
19.902328 17.235401 0.33358979 23.25
20.067005 17.238422 0.28010258 38.8125
21.187122 17.289442 0.29111558 11
21.259407 17.244921 0.31319934 34.902779
2.5027823 17.448944 0.32516289 77.523804
19.328009 17.595354 0.38963258 14
19.64085 17.597908 0.20199752 6
22.344551 17.591366 0.24393702 0
2.4875035 17.721312 0.28871632 74.14286
19.172215 17.737232 0.36267987 56
19.528793 17.679844 0.37301555 7
19.886814 17.620115 0.35732543 29.666666
2.4992385 17.880791 0.29752007 72.555557
10.282913 17.913469 0.33198577 3
10.505364 17.941261 0.28278586 29.541666
10.721971 17.984554 0.32150978 36.5
10.839092 17.965475 0.37604612 13
11.075647 17.950943 0.2256501 31
11.515837 17.96813 0.28621072 1
12.769724 17.978609 0.3090055 7.5
12.805374 17.975885 0.30180708 1
19.121616 17.963276 0.25557259 11
19.279903 17.832645 0.28054541 47.5
19.708033 17.884096 0.28247881 18
2.489121 18.10812 0.26799899 67.400002
10.297379 18.058214 0.30729249 36.777779
10.458256 18.031628 0.25888979 116.5
10.680071 18.043142 0.30126756 117.3
10.892656 18.03989 0.27523923 118.375
11.105079 18.044937 0.27767816 113.25
11.327923 18.054956 0.29365256 95
11.463368 18.026897 0.22374812 53.299999
12.770735 18.183599 0.3150169 5
12.90933 18.041782 0.25920013 37.666668
13.116953 18.02426 0.31373215 36.400002
13.245452 18.025951 0.32714722 44
13.51322 18.033709 0.26061413 54.625
13.67198 18.038155 0.32414865 38.5
13.888209 18.039854 0.27975661 49.5
14.098644 18.051283 0.28505799 41.583332
14.264705 18.049528 0.34636855 22.694445
15.745239 18.073111 0.31428441 21.166666
15.935333 18.09878 0.30193892 48.452381
16.081947 18.104132 0.31995615 36.061966
16.302477 18.106865 0.32139009 47.678036
16.499973 18.110867 0.30432624 60.766663
16.690491 18.119923 0.318629 69.190475
16.918976 18.127586 0.31534541 56.539349
17.129154 18.131077 0.30915624 73.557541
17.315008 18.136267 0.29401726 72.297516
17.518076 18.141464 0.30231553 71.65873
17.705603 18.145283 0.31572759 96.614037
17.895485 18.149168 0.31323501 115.19255
18.108242 18.152515 0.31344044 107.82504
18.306892 18.165792 0.31373763 108.26588
18.501373 18.167379 0.31763619 114.65559
18.64278 18.174864 0.32980826 76.162399
19.929016 18.027075 0.35434723 49.875
20.074186 18.014526 0.36430901 28
22.291557 18.04108 0.21728981 1
2.5212772 18.316959 0.29859704 90.5
2.7003801 18.385666 0.31985354 106.125
2.8625445 18.379761 0.32359236 101.57143
3.0238771 18.390167 0.32654148 88.083336
10.324472 18.310577 0.31980342 16.25
11.544075 18.270874 0.31128168 13.888888
11.713203 18.33157 0.274005 45.5
11.826566 18.323135 0.27877361 45
12.432167 18.390356 0.26610488 61
14.513453 18.367821 0.27350974 27.383331
14.61224 18.395298 0.33305854 33
18.349598 18.233448 0.30500099 125.4
18.511633 18.247747 0.29874694 113.18519
18.677778 18.292122 0.30947062 44.961048
19.12118 18.200142 0.33305061 38.5
19.946344 18.346176 0.33752099 43.5
2.7632949 18.410463 0.30580446 93.833336
2.9236815 18.408171 0.28189701 98.75
3.0636964 18.464725 0.3354446 81.599998
10.288408 18.481005 0.33763403 32.125
11.850926 18.42034 0.29969236 48
12.135586 18.41202 0.30808759 62.166668
12.435135 18.437986 0.31044102 52.5
12.731679 18.412708 0.32249114 21.666666
14.562654 18.421574 0.30530512 26
14.752733 18.413887 0.30301157 32.333336
14.896856 18.421061 0.29839641 20.433332
15.050422 18.437675 0.28977558 8.166667
15.208731 18.426901 0.35998055 9
18.683634 18.500591 0.32750171 33.498505
19.208878 18.552908 0.37065575 10.5
19.62664 18.467125 0.36408308 16
19.892937 18.598698 0.38388866 37.5
3.1247301 18.702791 0.30104104 63.5
10.293175 18.6971 0.32130373 32.75
18.675173 18.70015 0.31203258 30.392138
19.33317 18.63023 0.35301617 29.5
3.141732 18.941551 0.27533129 61.227272
3.2319195 18.907091 0.28801808 19.357143
10.2448 18.884426 0.32133612 54.25
18.670198 18.895298 0.32441694 29.276657
20.368176 18.946632 0.27434269 12
3.1009479 19.053646 0.27358556 69.199997
3.2087188 19.005384 0.30295998 62
10.252784 19.050108 0.30653629 24.166666
18.663633 19.084955 0.32831368 28.769844
19.181873 19.077309 0.3656579 18.333334
19.369541 19.14255 0.3203859 45.5
19.964167 19.024334 0.3652862 40.916668
20.105322 19.071209 0.32794616 30.666666
2.9718838 19.379566 0.25028548 91
3.0364029 19.332624 0.28737691 23.333334
10.251353 19.277573 0.29036653 24.333334
18.656534 19.299942 0.3273423 28.848591
19.300125 19.292009 0.3679406 12.166666
19.75849 19.298859 0.27850029 5
21.032492 19.390062 0.29817474 1
2.99999 19.552673 0.27792656 17
3.0641558 19.526972 0.28860673 25.75
10.237127 19.560768 0.22728688 43.75
18.654903 19.50839 0.33713832 29.631983
18.872513 19.401863 0.39863601 20.5
19.174122 19.511112 0.32150254 44
19.306181 19.558447 0.31390789 14
19.949139 19.450768 0.3441759 34.416664
20.072977 19.460155 0.27005264 38
21.141727 19.572664 0.31344682 14.8
21.269424 19.576149 0.30718511 8.6750002
21.402506 19.598238 0.20928228 1
2.9671223 19.723255 0.32317576 19.200001
3.0595303 19.659273 0.2416075 17.25
10.256319 19.692286 0.33251333 23.833334
18.648674 19.693531 0.33257407 33.08717
19.199696 19.797821 0.39525464 16.5
19.333391 19.779453 0.39496675 10.5
21.169693 19.685476 0.28595284 35.742065
21.260033 19.687603 0.31574312 49.072502
21.419064 19.644339 0.26722553 1.8
2.956037 19.958393 0.29728872 70
3.0339785 19.907879 0.27878121 25.75
10.191746 19.988314 0.23985983 52
10.249577 19.908249 0.33378971 25.75
18.596006 19.85668 0.20669542 10
18.643778 19.902731 0.31671929 33.265274
19.220728 19.997343 0.21461642 21.5
19.903406 19.915367 0.30780572 27.052086
20.039772 19.985973 0.29467639 8.5
20.282539 19.895866 0.31014153 28.5
21.193882 19.922939 0.31865326 36.648148
21.205339 19.888134 0.31522068 45.586132
2.9722421 20.108101 0.31323367 26.799999
3.0426581 20.088589 0.27424279 20.642857
10.237601 20.109955 0.31972423 41.666668
18.638643 20.094616 0.32223448 36.59164
19.274652 20.048548 0.35666758 15
19.441875 20.108883 0.34148806 4
21.193182 20.089411 0.30995297 39.792007
21.202925 20.087057 0.30543157 34.911549
2.9732225 20.293947 0.32552502 22.083334
3.0114412 20.255419 0.29912695 26
18.598436 20.278063 0.39894098 5
18.63352 20.275791 0.32078099 37.61478
19.449165 20.282455 0.39949739 6.5
20.260799 20.385704 0.39305532 22.5
21.185545 20.286095 0.32301712 36.944489
21.203547 20.267141 0.25062376 29.4375
2.9434211 20.471643 0.27876851 48
3.0193317 20.475548 0.28865877 22.666666
10.230472 20.542202 0.3727375 64
18.629023 20.488977 0.32661769 36.506611
18.974607 20.406837 0.34910685 7
19.387335 20.46839 0.37157035 5
19.932608 20.444166 0.37476057 42.983334
20.116051 20.428398 0.3924824 19.25
21.186661 20.490898 0.31876943 39.684204
21.20418 20.417141 0.23490942 28
2.9785664 20.680309 0.27935484 29.5
3.025095 20.671316 0.27143067 17.75
9.9792576 20.75226 0.38817656 7
10.104446 20.734457 0.27295777 53.92857
10.222725 20.612757 0.32518318 70.5
18.596193 20.759258 0.21235327 25
18.623301 20.700243 0.31702477 33.291088
19.313299 20.764786 0.35281938 19.25
19.636017 20.761139 0.30663055 31
21.180784 20.708221 0.33282873 42.900669
21.216005 20.716831 0.20214891 17
2.9481316 20.874855 0.29327753 18
3.0215192 20.918934 0.27670214 18.200001
10.128409 20.858908 0.28319654 21.285715
18.593489 20.959026 0.25561503 17.333334
18.617981 20.904541 0.32492849 35.270912
18.828382 20.978197 0.38047558 24
19.888565 20.875628 0.37118232 39.611115
21.170818 20.912735 0.32312497 39.019985
21.938868 20.970001 0.28021845 3.3333333
22.076309 20.982332 0.3038868 3.5
22.304178 20.987062 0.35530123 5
2.954761 21.097696 0.27241388 19
3.0346806 21.066072 0.25543746 20.5
10.101329 21.09362 0.3056168 25.954546
18.591164 21.065849 0.21852814 22
18.615637 21.093081 0.32802069 35.418198
18.959921 21.106014 0.32256174 24.666666
19.27882 21.063492 0.31237772 25.833334
19.463413 21.059494 0.29857358 0
19.662548 21.16625 0.31058225 13
20.170309 21.195057 0.22905806 2
21.167643 21.102606 0.31892374 42.367191
21.745636 21.054461 0.31106296 1.25
21.883232 21.028614 0.30093622 1.3529412
22.080389 21.011068 0.32689944 2.1500001
22.267105 21.015795 0.38124308 3
2.9335046 21.277973 0.27372104 19.5
3.0105462 21.309946 0.32104918 22
9.9380054 21.336897 0.37182036 3
10.15801 21.309513 0.26459581 82.222221
10.239157 21.33696 0.30785748 98.277779
18.597162 21.318821 0.3001495 46.513885
18.610008 21.287474 0.31545711 36.812008
19.044119 21.254282 0.35149539 4
19.407669 21.370832 0.20734751 3.5
19.904621 21.288483 0.3942391 36.375
20.125401 21.250238 0.39544234 30
21.161081 21.304258 0.30971333 39.763855
2.9765854 21.54813 0.29956818 20
3.0239382 21.512487 0.33076623 15.666667
10.284672 21.512287 0.36754429 46.5
18.592255 21.519686 0.30263561 28.825031
18.608795 21.489016 0.32199299 36.469791
19.609106 21.589096 0.2310673 24
20.139675 21.552788 0.25629288 23
21.160034 21.507061 0.3328419 46.345375
2.9646273 21.701286 0.28056028 26.166666
3.0230534 21.718277 0.2850987 26
18.591732 21.696598 0.33874398 24.55574
18.606386 21.677073 0.32483327 37.51009
18.909811 21.616474 0.39533138 21.125
19.041931 21.74427 0.3519595 17.75
19.356012 21.650276 0.37383389 28.75
19.597195 21.600796 0.36097181 22
19.783697 21.701427 0.36737502 43.25
19.863808 21.705948 0.36812562 38.125
20.09544 21.624683 0.34457904 35.75
21.154469 21.702826 0.32471693 40.780029
21.726244 21.784248 0.23765707 0
2.9255724 21.869509 0.36304733 18.166666
3.008527 21.928205 0.3182041 27.333332
10.251835 21.959572 0.2800149 26.5
18.592352 21.909693 0.3143582 33.911297
18.603292 21.858452 0.30376276 44.679165
19.272991 21.907902 0.33469239 10.583334
21.140018 21.903917 0.30485973 36.363026
21.20797 21.936939 0.35046238 2.9099703
21.74119 21.822924 0.3731454 0.5
21.94943 21.846529 0.32221645 2.7916667
22.084072 21.85586 0.34162501 6.234375
22.292671 21.859064 0.34649134 5.333333
2.9188836 22.144972 0.312406 20.125
3.0105908 22.09643 0.26911464 23.333334
10.162257 22.119362 0.25777391 32.5
10.256791 22.112473 0.31712994 26.25
18.588942 22.106081 0.32366526 32.703568
18.603765 22.073458 0.29204264 37.333332
19.062437 22.119989 0.37062097 9.25
19.72736 22.101162 0.34042251 9
19.859318 22.176167 0.36507908 40.208336
20.11146 22.115543 0.30033502 22.541668
20.956474 22.075684 0.31380558 4
21.138231 22.076406 0.29247981 14.167965
22.178722 22.144827 0.21607476 0
2.9607167 22.277582 0.22091389 33
3.0055981 22.302691 0.25276721 30.333334
10.153913 22.37435 0.3320891 18
10.228577 22.356136 0.23776253 21.5
18.585987 22.295115 0.3043665 24.305317
18.60606 22.337631 0.36416912 28
18.893856 22.311871 0.3503457 16.5
19.264229 22.312775 0.27980906 33.166664
19.40889 22.304583 0.31360945 13.5
21.145807 22.285379 0.27762914 3.4426465
22.2349 22.210264 0.21356475 0
2.9493513 22.487854 0.31467649 23.5625
3.000299 22.504827 0.34379655 30
10.231572 22.470638 0.29353341 31
18.584873 22.496456 0.3056109 15.699766
18.7938 22.565987 0.39646962 8
19.088606 22.418564 0.26105359 25
19.268423 22.54059 0.32702515 12.766666
19.414305 22.51552 0.35878238 8.833333
19.699074 22.560951 0.30208078 33.8125
20.058014 22.588781 0.29920194 35.3125
20.957661 22.529682 0.3275238 26
21.118523 22.518301 0.30433804 19.135454
21.20669 22.54073 0.3951723 1
2.9420733 22.685312 0.32458907 23.25
3.005568 22.660683 0.39285865 33
10.198016 22.608437 0.37726364 28
10.244287 22.642712 0.3645854 33.5
18.580933 22.706629 0.33442479 16.571699
18.706991 22.610132 0.37955296 13.5
18.970827 22.751394 0.28636977 32.361111
19.085461 22.723169 0.326626 30.988888
19.255239 22.711288 0.34210107 12.5
19.830112 22.641556 0.28558034 37.833336
21.112383 22.702562 0.29393303 37.756413
2.9484322 22.889425 0.31713352 23.569443
3.0506706 22.853233 0.21024647 23
10.126991 22.869492 0.27546358 20.25
10.236166 22.918955 0.25876382 27.642857
18.574671 22.895817 0.32145113 22.650351
18.602345 22.912386 0.35913914 2
19.107056 22.974592 0.33494902 16.722221
19.271528 22.980732 0.37188962 1.3333334
19.5863 22.924889 0.35831308 30.833332
19.68441 22.889502 0.28633568 43.013195
19.920824 22.953697 0.32893667 42.952381
20.041531 22.908997 0.22439972 7
21.133032 22.854841 0.2972618 14.467129
21.219772 22.872931 0.33408582 6.090909
2.9702783 23.148083 0.26816314 28.299999
10.132146 23.059662 0.39584485 18
10.234137 23.082371 0.28017834 31.5
18.571928 23.0972 0.32555887 16.336658
18.612192 23.016926 0.28901801 4.5
19.072466 23.020477 0.38388324 17.854166
19.296824 23.157078 0.24806356 8
19.693434 23.076653 0.31192565 37.379627
19.94549 23.08112 0.34476319 41.6875
20.071228 23.045954 0.25759432 61
22.281334 23.147583 0.22231314 0
2.9525781 23.292479 0.26451463 33.142857
10.244126 23.336266 0.29453406 32.666668
18.563759 23.293924 0.33450696 20.365252
18.993328 23.249102 0.32340473 21
19.03698 23.327108 0.30988312 27.25
19.247187 23.334732 0.34403673 23.166666
19.699305 23.280647 0.31094119 32.573811
19.953199 23.373688 0.36541572 41.882141
20.108814 23.324528 0.33715329 57
22.92798 23.21789 0.32554257 0
2.9552243 23.498133 0.3042874 33
3.0065928 23.561863 0.37043011 34
10.13256 23.509459 0.28589308 19
10.23505 23.473755 0.29778433 31.666666
18.555588 23.492552 0.33795738 33.226284
18.79446 23.554417 0.33246997 27.958332
19.137163 23.563423 0.34374329 17.527779
19.25964 23.56171 0.37300691 5
19.622803 23.54797 0.27414572 20.18125
2.9187119 23.680048 0.32734609 35.166668
10.202169 23.601126 0.34025297 16
18.552145 23.692093 0.31876308 32.417423
18.754442 23.615505 0.35360587 6.5
18.912123 23.653296 0.28403699 38.052082
19.126427 23.692463 0.2900871 18.083334
19.694904 23.667023 0.30346113 37.833332
19.886276 23.668932 0.31411421 39.952087
20.009512 23.616596 0.29866898 47.458332
22.312395 23.730816 0.21803999 0
2.7541456 23.942078 0.28914678 41
2.8190925 23.906906 0.33428627 63
10.234882 23.868515 0.30402634 36.333332
18.546293 23.905859 0.30999604 35.145462
19.091038 23.901619 0.34423655 13.083334
19.708168 23.833523 0.29571417 41.5625
19.82394 23.99963 0.31027609 36.477272
20.151466 23.971628 0.21992898 14
2.9607315 24.036905 0.31155771 82
3.0772281 24.142239 0.31078357 46.125
10.188284 24.077419 0.29608896 38
10.227721 24.084387 0.30937386 33
18.543449 24.093809 0.30757105 25.033772
18.981888 24.079477 0.37673172 8.75
19.123489 24.146648 0.27692354 28.166668
19.302078 24.043005 0.26050434 10
19.720095 24.081198 0.28156292 36.361111
19.912498 24.188429 0.29928938 43
20.098675 24.087057 0.27719265 57.391968
2.9777107 24.265013 0.26262596 50.5
3.0412936 24.25083 0.3212941 62.214287
10.197395 24.215553 0.35034969 34
10.239709 24.378231 0.25255451 37
18.543499 24.291853 0.31634897 16.695265
19.330923 24.215822 0.33849671 4.25
19.697159 24.398987 0.24993169 20
2.991117 24.572193 0.39698717 23
3.0239747 24.46328 0.29003152 32.5
10.156612 24.539425 0.31534234 33.25
10.218073 24.46641 0.26611543 35.333332
18.545214 24.492201 0.32423359 16.020639
18.907196 24.551596 0.34917843 48.416668
19.154606 24.472635 0.3517985 18.156944
19.275869 24.438456 0.35111502 16.5
19.75684 24.468803 0.32841682 40.154167
19.85478 24.586075 0.31893003 44.083332
20.150856 24.572638 0.25206816 61.5
2.9613466 24.791002 0.36082661 15
3.0219078 24.70009 0.29007074 36.142857
18.536655 24.711441 0.31958929 16.29714
18.771992 24.734226 0.36637312 10
19.082066 24.698446 0.28609511 23.99127
19.259583 24.670603 0.32253435 20.111113
19.721491 24.678118 0.27212936 41.416668
20.015062 24.606787 0.3109864 55.349625
2.9621999 24.905619 0.22973187 14.333333
3.0226378 24.884928 0.31230265 31.200001
9.9216118 24.923267 0.25795448 6
10.101433 24.91728 0.30878404 33.166668
10.374064 24.938326 0.37033573 89
18.528912 24.901455 0.30949107 15.323119
19.123083 24.881685 0.29893076 27.944443
19.787075 24.822554 0.3311781 35.854168
19.895216 24.90922 0.31656274 44.916668
20.108261 24.924314 0.27643767 57.163891
3.0266984 25.093309 0.2955001 31.35
9.8790255 25.002911 0.24531372 22
10.105525 25.133633 0.23565087 33
18.519205 25.096598 0.30423075 21.482094
18.763874 25.172644 0.32706368 40
19.143099 25.110901 0.2984733 31.981482
19.7089 25.090191 0.32056096 38.895832
20.942524 25.186283 0.27020738 1
21.14032 25.169748 0.30397198 1
2.9462681 25.296022 0.32517123 29.25
3.016094 25.324724 0.30685669 29.65
10.100709 25.30687 0.29006013 34.833332
18.399082 25.255562 0.26150274 5
18.511179 25.297016 0.30451229 30.253252
18.914959 25.299305 0.28780133 63.055553
19.164761 25.326332 0.29696953 6
19.772865 25.20648 0.33954403 11.5
19.883177 25.26078 0.36491612 13.407955
20.029177 25.283716 0.3432484 12.19375
20.941582 25.330101 0.28731763 22.277779
21.093155 25.314365 0.29920205 62.095596
21.226768 25.283766 0.28873327 24.055555
2.9156086 25.50782 0.31814611 15.666667
3.0172644 25.485291 0.26755467 31.833334
10.095938 25.482096 0.31737882 32.299999
18.507425 25.486927 0.31370592 34.503914
19.680855 25.460396 0.30179715 36.346527
19.839577 25.583927 0.2706477 13.726192
20.021908 25.576653 0.26727831 24.686508
20.941257 25.504112 0.32510298 6.5
21.055609 25.503532 0.30633619 42.94212
2.8532157 25.747021 0.37804639 13
3.0155792 25.703339 0.33072802 32.583332
10.092731 25.706926 0.28133416 27.875
16.133545 25.732471 0.34266329 25.883335
16.304737 25.706879 0.31250492 66.366669
16.520552 25.709143 0.30513057 45.525002
16.663879 25.704098 0.29370123 59.25
16.913885 25.722698 0.30993652 130
17.047295 25.734159 0.24524599 139.33333
18.502251 25.694006 0.32041177 31.366476
18.675226 25.708551 0.3600122 95.8125
19.092939 25.663992 0.34814754 19.347223
19.209806 25.708118 0.35592031 38
19.725704 25.706284 0.29097086 44.291664
21.056911 25.697815 0.31139669 45.782822
2.9681306 25.933498 0.32634088 26.25
3.0117371 25.916809 0.30562317 29
10.093225 25.891823 0.32706666 35.125
12.526838 25.979044 0.26497567 1
16.051975 25.867025 0.32327396 11.577778
16.271778 25.997437 0.34027651 13.5
16.665398 25.876371 0.31510466 18
16.945677 25.897717 0.27038571 54.3125
17.105904 25.918776 0.30815661 43.53125
17.458759 25.954885 0.25888634 0
18.496777 25.902504 0.30469725 31.479462
18.919975 25.90489 0.29119053 32.6875
19.15699 25.941444 0.33199805 41.625
19.287889 25.996954 0.30384135 4
19.765875 25.974411 0.31688511 52.125
19.87418 25.892374 0.30868673 18.964287
20.027992 25.910252 0.29652274 13.55
21.054853 25.90473 0.31069854 47.047035
2.9886672 26.131689 0.2873624 39.666668
3.0140271 26.15715 0.23659462 31
9.9287148 26.12579 0.25684771 22
10.088149 26.123774 0.27486572 29.214285
10.363111 26.067959 0.36875135 77.5
12.523628 26.160896 0.25286114 1
16.026594 26.088638 0.35175887 20.055555
16.540258 26.006104 0.36744326 8
16.724123 26.017397 0.34505272 11.75
17.278303 26.070545 0.28926978 34
18.491228 26.094055 0.29950652 31.565012
18.963938 26.12088 0.33883598 25.166668
19.143837 26.161699 0.30759761 32.083332
19.255199 26.135113 0.34553337 26
19.886114 26.159561 0.27803129 29.672703
21.046814 26.094225 0.30122188 42.554832
2.7414665 26.281158 0.34215662 81.5
2.9116261 26.268826 0.30615911 79.041672
3.0046563 26.240753 0.23227066 49
10.094964 26.243853 0.27418336 38
10.340917 26.291103 0.27957281 99.349998
16.038361 26.28694 0.33149111 32.708332
17.504108 26.279385 0.28355598 28.260416
17.665678 26.379288 0.27548718 27.466665
18.397852 26.345039 0.29661521 8
18.487478 26.296707 0.29525065 32.740017
18.751375 26.213699 0.36122891 38.75
18.910877 26.358543 0.23144193 11
19.181593 26.316521 0.32870495 42.166664
19.279837 26.33852 0.29135311 13.333333
19.661654 26.262014 0.29193139 42
20.094849 26.243032 0.25674886 17.270834
21.045012 26.286766 0.30063882 43.377716
2.778523 26.463181 0.35117683 71
2.8793724 26.525122 0.29016227 92.5
10.08645 26.503901 0.3069801 34.099998
10.334851 26.509928 0.28455612 111.68333
12.337774 26.58077 0.21771133 4.5
12.539774 26.486286 0.29167587 4.25
16.090343 26.486752 0.31015283 99.087509
17.743565 26.436783 0.30579525 28.833334
17.890972 26.509985 0.29052374 34.258335
18.025219 26.594219 0.26665914 34.416664
18.482782 26.504667 0.30568367 33.145367
18.978203 26.553574 0.34922618 75
19.130728 26.434149 0.32681039 24.166666
19.398367 26.550676 0.32944602 10
19.707016 26.494352 0.2799986 21.961807
19.915909 26.513487 0.31839234 42.450001
20.034626 26.526833 0.28457224 39.333332
20.98131 26.52684 0.27974755 14.25
21.036736 26.494211 0.2897549 45.930935
29.883144 26.510355 0.38452601 1
2.9072742 26.683044 0.33275083 90.5
10.087591 26.680752 0.27205104 40
10.327855 26.732138 0.28373858 116.66666
15.775724 26.781485 0.30220562 8
15.943703 26.774357 0.2875047 87.53125
16.069302 26.697018 0.31093284 108.0125
17.975948 26.601074 0.37383395 11.875
18.117279 26.660326 0.30464697 24.087036
18.299702 26.675129 0.29720083 54.121143
18.477545 26.645559 0.31546077 31.309738
18.996569 26.62915 0.29767174 14.5
19.149364 26.632549 0.29176307 23.833334
19.794653 26.744711 0.29865271 37.099998
19.955786 26.787344 0.32680774 36.233334
20.965506 26.743723 0.23002541 150
21.034958 26.692535 0.29205477 45.347378
21.768274 26.786522 0.33536354 1
21.877207 26.767626 0.31597126 1.5
29.850777 26.644947 0.29952568 1
2.7446477 26.870173 0.28799158 66.958328
2.8958769 26.86558 0.29954109 84.815788
10.078981 26.896387 0.29471034 37.049999
10.323727 26.918039 0.28394476 122.95
14.883286 26.821884 0.34299073 3.6666667
15.097049 26.821447 0.25565627 21.333334
15.260284 26.830496 0.27200621 28.055557
15.548312 26.836723 0.27428055 25.46875
15.792192 26.823162 0.25542939 95.833328
15.826317 26.812622 0.33439988 106.6875
18.770962 26.880711 0.29379955 37.166668
18.866135 26.954174 0.27196476 6
19.145123 26.937969 0.32825541 26.5
19.245272 26.913849 0.29257512 7.5
19.634171 26.886292 0.29005033 19.833332
20.083532 26.805668 0.23539019 41
20.930729 26.966009 0.27825671 58.101074
21.040913 26.924746 0.29379401 61.53521
21.309155 26.995941 0.36121449 33.916664
21.515474 26.908731 0.2302922 4.5
21.687582 26.886585 0.30402184 31.25
21.89152 26.827938 0.25342512 1
29.701126 26.857603 0.27921993 7
29.807011 26.913015 0.32238445 2.5
2.7378759 27.009502 0.21391442 73
2.8734457 27.067898 0.32440054 74.5
10.067021 27.12459 0.28926852 28.818182
10.328825 27.093029 0.28173316 119.33334
19.112309 27.173655 0.26301131 19.666668
19.633587 27.018129 0.30855411 7
19.883526 27.044004 0.30144066 38.263889
20.741241 27.168621 0.29969615 18.5
20.927923 27.068005 0.29510292 84.346107
21.08683 27.037905 0.2888875 66.991859
21.2967 27.0471 0.27903032 62.69268
21.505512 27.071068 0.28729531 58.260883
21.717615 27.079929 0.27896392 56.326385
21.87788 27.059587 0.28724125 41.635418
29.539536 27.072824 0.2744492 23
2.5772715 27.39249 0.35687768 7
2.9285202 27.350544 0.3359549 74.38636
10.075376 27.279623 0.28132731 38.888889
10.318983 27.266535 0.31367311 122.16667
19.099518 27.264301 0.22873321 36.166664
19.772476 27.258125 0.27180016 32.375
19.92276 27.30249 0.26380599 41.354168
21.065481 27.245697 0.26741856 7
29.464905 27.281946 0.32628351 47.5
2.7467613 27.42174 0.31806621 68.833336
2.8825779 27.417814 0.3030808 89.529411
10.076636 27.503677 0.29093757 37.888889
10.311485 27.466766 0.29009497 118.6875
18.786921 27.523712 0.33962965 24.5
19.133465 27.466002 0.28334314 17.25
19.250801 27.588531 0.32673833 10.1875
19.469683 27.492596 0.20518744 3.5
19.669554 27.401108 0.27844253 28.5
19.806768 27.571123 0.27599952 1.5
29.374645 27.539101 0.20873559 42
29.421661 27.409943 0.35077113 39.5
2.7513535 27.677322 0.32983443 69.666664
10.074007 27.701059 0.28916046 37.5
10.308688 27.692696 0.29380441 118.875
19.239334 27.730122 0.30688047 42
19.635757 27.797499 0.32456434 12.5
19.948849 27.6026 0.27432963 47.125
29.37377 27.65365 0.30006763 38.5
2.5840645 27.937866 0.32711136 1
2.7259076 27.982052 0.31844112 78.300003
2.8860614 27.97666 0.2836329 82.666672
10.066399 27.91589 0.29754543 39
10.302926 27.897091 0.27606779 116.77083
18.702148 27.982851 0.35743019 50
19.152748 27.950756 0.28141132 19.833332
19.768827 27.883389 0.32170215 24.75
19.906858 27.923681 0.25883856 44.138889
21.708826 27.933744 0.29659349 47.027084
29.378653 27.864742 0.32266772 42.4375
29.406265 27.826843 0.27871108 38
2.5629711 28.001965 0.39980063 27
2.7559843 28.002352 0.25807962 91.625
2.855669 28.049007 0.30860597 58.625
9.8476868 28.130156 0.26532519 12
10.070732 28.108963 0.30744988 38.8125
10.295922 28.092247 0.2919116 113.83334
18.791948 28.037926 0.24795875 7
19.131762 28.103861 0.23744321 22.444445
19.211241 28.022646 0.37281936 12.5
19.703194 28.104095 0.26713613 16.444445
19.877916 28.180334 0.36900905 23.333334
21.700209 28.094044 0.29319349 55.736485
29.291946 28.074451 0.29399577 106.3
2.7891679 28.334 0.36901757 43
2.8491426 28.238525 0.39633808 82
9.855484 28.266691 0.26175642 19
10.060614 28.32085 0.28743866 39.705883
10.300726 28.303841 0.28618148 101.7803
10.581596 28.391212 0.3411735 75
18.687531 28.323511 0.30650127 6
19.512924 28.300657 0.33680293 3
19.925789 28.210388 0.25997743 34.09375
21.696749 28.303455 0.29274201 59.423355
29.287384 28.308222 0.29790562 104.625
2.5665982 28.528877 0.30630526 13
2.7520125 28.554457 0.3301774 61.25
2.8799636 28.545658 0.29615223 77.379631
10.061375 28.503078 0.3255423 37.388889
10.626461 28.484911 0.29379115 106.54166
18.127907 28.585737 0.27720153 77.583336
19.134459 28.447929 0.31159833 21.055555
19.695147 28.48381 0.30911431 18.5
19.941031 28.482975 0.29512221 26.125
21.690241 28.519005 0.29237613 54.728737
29.288244 28.528046 0.32211316 104.33334
2.7454696 28.726582 0.30196249 50.25
2.8605158 28.648758 0.27509028 55
10.053687 28.671221 0.29744434 38.846153
10.642912 28.686481 0.28300789 95.583328
11.099629 28.724455 0.29989907 34.666668
11.291918 28.758818 0.32832697 30
11.468761 28.751957 0.23004866 28.25
11.747179 28.738705 0.24708316 40.5
11.865235 28.760324 0.30611303 30.333334
12.084579 28.772129 0.28694242 29.5
12.280794 28.764515 0.24438566 29.5
12.453611 28.78698 0.30451474 33
12.697934 28.78084 0.30459577 31.75
13.094199 28.790819 0.30323806 31.833334
13.345692 28.794779 0.24664944 34
13.474361 28.786606 0.32504153 38.333332
13.778749 28.798161 0.3304396 33.75
13.94748 28.798975 0.2117981 49
14.154711 28.788385 0.32415074 58
14.278008 28.795763 0.38773137 62.333332
14.455095 28.794428 0.30600005 62
14.872717 28.749445 0.26777992 24.166668
15.102147 28.718683 0.32942566 23.6
15.245852 28.714882 0.29278919 25.208334
15.478467 28.6973 0.25783548 26.333332
15.705682 28.696022 0.33184147 55.75
15.871445 28.758558 0.31430402 103.80324
16.024984 28.793913 0.2935569 63.125
17.278736 28.770796 0.26804683 49.939396
17.480078 28.728466 0.28196552 51.716145
17.685053 28.688227 0.30314046 63.523392
17.892532 28.649115 0.2944583 73.204994
18.089563 28.649769 0.29085299 80.061119
18.293549 28.695709 0.28598282 96.275398
18.419859 28.745928 0.29005438 58.955635
19.066803 28.739187 0.31738043 17.333332
21.677767 28.733757 0.28819367 75.746246
23.977051 28.70853 0.29743546 8.416666
29.275188 28.759705 0.31745839 103.375
2.8397603 28.837902 0.37521186 72
10.054393 28.885508 0.33698323 41.944443
13.05468 28.812 0.34350789 31
13.512677 28.809256 0.28345969 32.5
13.676201 28.814339 0.34850219 35.25
14.109527 28.818075 0.28097433 32.041668
14.28734 28.832191 0.36617279 42.5
14.505398 28.818731 0.27455404 41.75
14.605839 28.838989 0.30620998 28
16.08144 28.834633 0.28522429 79.509262
16.259758 28.852993 0.27956367 59.189819
16.453407 28.8542 0.27855709 43.746212
16.674776 28.861511 0.25970954 48.229168
16.895765 28.865406 0.29385167 55.165279
17.071257 28.843765 0.26135886 78.019096
17.230379 28.800817 0.26369083 95.125
18.136822 28.827244 0.3155489 128.14285
18.330507 28.861151 0.28810775 50.25
18.424763 28.888462 0.28380486 37.071205
18.732431 28.861629 0.32641381 21.083332
19.08337 28.876696 0.24344699 24.5
19.725863 28.888414 0.26667437 38.083332
19.92915 28.915066 0.28234488 37.361111
20.960987 28.917461 0.30094671 36.772156
21.07654 28.878361 0.29431525 102.13462
21.26062 28.857956 0.28797942 106.49749
21.468218 28.858271 0.29034454 92.851936
21.643511 28.851669 0.27909565 87.298012
25.914162 28.840338 0.33899403 11
29.270325 28.947723 0.28503963 103.33333
2.5227945 29.136518 0.27591324 8
2.7082777 29.119965 0.30328402 69.254906
2.8755219 29.116226 0.31381431 64.565216
10.051222 29.066984 0.31874225 44.517857
18.389915 29.079453 0.38681853 3
18.422136 29.092587 0.27345827 35.201637
19.131878 29.034847 0.24791768 18.75
19.452251 29.14679 0.22734508 19.875
20.96859 29.108921 0.29198387 39.785664
28.88756 29.193972 0.31609815 81.5
29.021078 29.162161 0.34966478 62
29.264462 29.041937 0.33568656 100.5
10.041971 29.277592 0.28815767 45.099998
18.387314 29.23859 0.25863284 12.5
18.412832 29.307592 0.28130877 35.742306
19.07258 29.313492 0.22674949 23.763887
19.682852 29.329849 0.22407261 46
19.93557 29.288311 0.20605978 5.75
20.965372 29.301226 0.29527658 39.486961
23.624973 29.204538 0.25472969 48
23.819139 29.205736 0.27797163 59
24.031105 29.22365 0.30247366 58.666664
24.237627 29.241888 0.28245398 57.055557
24.475634 29.24818 0.29080957 56.75
24.716995 29.255026 0.30928549 56.333332
24.863586 29.261387 0.29916874 49.25
27.703964 29.256451 0.22678739 27.5
28.153191 29.271305 0.22940302 24
28.336372 29.27054 0.32144284 27
28.572084 29.285816 0.21927446 30
28.625494 29.288841 0.29060405 33
2.8214037 29.423441 0.28112769 66
10.047733 29.483948 0.27335376 43.151516
18.396189 29.507605 0.28068909 24.851191
18.412073 29.483498 0.27001193 39.509403
18.690161 29.492985 0.27693319 14
19.108486 29.573816 0.23259681 16
20.958439 29.509733 0.28005686 39.610691
2.5001285 29.720852 0.29551736 49.625
2.6887317 29.701439 0.28102973 49.762821
2.8772836 29.689442 0.30946621 22.857143
10.038692 29.699625 0.2867904 49.677776
18.388119 29.712875 0.27160484 30.977705
18.406578 29.687214 0.29354197 34.669918
19.166866 29.665609 0.2492893 18.583332
19.959827 29.704855 0.21198118 37.375
20.949936 29.713173 0.28682789 40.722027
21.048763 29.792698 0.25898325 65.5
29.233772 29.726252 0.36338913 7
2.4828267 29.905235 0.29320318 46.554688
10.037298 29.8937 0.29086444 59.111111
18.388546 29.914326 0.28029439 24.305889
18.405371 29.870874 0.26696849 39.37487
18.907124 29.960781 0.35666227 42.5
19.114525 29.971891 0.29469451 14.277778
19.506727 29.914043 0.24189654 21.333334
20.93928 29.841415 0.28834546 48.447422
21.102409 29.860594 0.28193825 58.443886
29.238897 29.929661 0.39403766 2
2.4781935 30.097677 0.29487222 43.361111
9.9908142 30.005266 0.35573372 28
10.119249 30.03418 0.3169471 115.56158
10.233031 30.1019 0.32807857 82.737175
18.387983 30.111275 0.28946269 32.126534
18.402538 30.109354 0.26837122 39.411804
18.959251 30.086893 0.21716893 24.666666
19.121628 30.113071 0.20238042 34.5
19.326324 30.016008 0.34955043 14
19.676928 30.045141 0.28138423 34
19.933825 30.034536 0.25140184 16.5
21.139666 30.114098 0.25331107 40.898319
2.4741521 30.315344 0.28489441 50.75
10.229277 30.293291 0.27821183 52.544117
18.385828 30.295223 0.26820293 33.062851
18.413105 30.286312 0.34905937 27.266666
19.090782 30.335962 0.23911446 13.666667
19.595469 30.216143 0.37446499 0
19.654287 30.294504 0.29176432 13.958333
21.136858 30.317314 0.28586501 41.39502
2.4735689 30.481705 0.2814481 57.785713
10.226271 30.514982 0.332636 57.108974
18.385263 30.491659 0.29166561 34.126911
18.40258 30.501492 0.375732 42.5
19.131691 30.458015 0.32782447 11
19.932919 30.430389 0.2783899 37.888885
20.029282 30.4597 0.2056371 32
21.134604 30.511721 0.28029242 47.862629
2.470705 30.694311 0.27329299 51.713333
10.221637 30.693378 0.29166085 53.769737
18.380714 30.700064 0.27164635 32.108685
19.481977 30.665333 0.2419135 28.75
21.125502 30.706253 0.26338926 47.27066
2.4695656 30.889973 0.28228089 56.508331
10.221877 30.891083 0.3114329 57.260414
18.371994 30.890789 0.27231857 29.983587
19.071554 30.822071 0.23496506 11.694445
19.690344 30.81971 0.34487444 30.5
20.939316 30.949915 0.28905764 72.456909
21.072094 30.894461 0.28899169 82.681671
2.469311 31.102888 0.27173296 61.357635
10.184231 31.126137 0.39809304 47
10.219055 31.093845 0.32548174 55.630558
18.369783 31.10759 0.27548733 29.477884
18.94837 31.145054 0.22818965 28.5
19.025867 31.184788 0.38734323 21
20.762257 31.137142 0.3089292 7
20.906059 31.094103 0.29483959 43.010071
2.462971 31.312199 0.29347456 63.068748
10.214488 31.286985 0.30681059 58.652775
18.367926 31.293381 0.28803825 35.457676
18.960802 31.360786 0.34281629 12
19.086504 31.354525 0.29190707 6.6666665
19.623997 31.275818 0.32299373 28.125
19.890173 31.337605 0.27715623 39
20.919865 31.315733 0.29291961 35.245338
2.4645753 31.487637 0.29789704 65.970001
10.189434 31.537586 0.32697356 61.5
10.211728 31.508739 0.30265474 59.524509
18.357063 31.48348 0.28611398 27.628944
18.882818 31.425409 0.24418014 27.5
19.343517 31.477455 0.27984211 19.583334
20.912037 31.500566 0.28378072 35.350769
2.4616928 31.686937 0.3161166 74.640282
10.192558 31.742737 0.39373139 11
10.207285 31.70472 0.28725538 59.333332
18.359188 31.689507 0.30655962 31.375246
18.952833 31.731041 0.26599622 10
19.067785 31.761648 0.25501823 13.75
19.552759 31.742908 0.31530654 5
19.649387 31.79546 0.21148992 45
19.877779 31.779678 0.2423411 20
20.910034 31.682425 0.31251717 33.873775
2.4579246 31.909475 0.3181785 71.951385
10.155653 31.957264 0.3279745 40.75
10.212181 31.890406 0.31112677 46.266666
18.162504 31.939537 0.27500257 51.354855
18.311852 31.86142 0.28474557 59.443855
20.903692 31.894182 0.31345564 37.923409
2.456728 32.104847 0.32825619 78.019287
10.193648 32.085217 0.31809309 57.25
10.205784 32.076477 0.29633138 57.69318
18.162333 32.101109 0.27740467 25.933573
18.216995 32.106339 0.35465622 5
18.564695 32.178661 0.28717726 7.5
19.100878 32.092102 0.34958327 7
19.370222 32.124542 0.30502123 1
20.900248 32.098595 0.31329402 36.720348
2.4530628 32.312897 0.32415459 83.389793
10.191031 32.289108 0.3062363 51.134617
10.205368 32.301464 0.32144409 69.458328
18.168621 32.301617 0.30667797 32.115498
18.94006 32.245987 0.28350419 12
19.028837 32.268085 0.27517432 12
19.598871 32.271332 0.37264353 24
19.619219 32.308376 0.29343998 27
20.894285 32.307407 0.30587554 37.636658
2.4502516 32.499474 0.31981248 89.744667
10.190323 32.49498 0.31298125 57.754166
10.208289 32.493813 0.34325692 63.619049
18.164442 32.501385 0.28523552 29.066456
20.88872 32.515865 0.31207523 39.758362
2.4475045 32.701263 0.30262798 83.29454
10.187665 32.719536 0.31511623 60.059376
10.203534 32.654369 0.34692106 65.388893
18.160007 32.68293 0.29842952 31.328342
18.712793 32.789688 0.30910966 32.25
18.908194 32.722565 0.28332663 11
19.029793 32.677879 0.24677017 9.25
19.575649 32.750103 0.3710227 26.5
20.887291 32.687775 0.30963194 36.667027
2.4457419 32.898926 0.30876243 88.411858
10.185156 32.911625 0.30999711 59.920437
10.204532 32.89476 0.32950604 58.935188
18.160351 32.897449 0.28948742 45.379162
18.252876 32.987579 0.2708165 120.72223
18.861885 32.894402 0.394411 68
20.881941 32.895164 0.30340564 38.847496
2.4409614 33.091835 0.31966323 92.000679
10.187338 33.095592 0.3141754 66.939926
10.203373 33.090336 0.36728466 77.666664
18.1786 33.012474 0.28520182 99.366669
18.290117 33.088547 0.31044057 77.611069
20.875914 33.100574 0.30394703 41.475082
2.4352 33.302902 0.29518729 96.11377
10.183659 33.300808 0.31716678 66.511574
10.204551 33.287109 0.36007994 83.375
18.194435 33.267597 0.33430278 19
18.319231 33.309273 0.29426169 31.341825
18.860357 33.227455 0.22241676 11
19.513092 33.211658 0.29649895 35
20.874023 33.297058 0.30942672 43.216637
2.4333107 33.491001 0.30662119 100.28808
10.180327 33.494617 0.30640858 68.302826
10.200867 33.50724 0.34673107 84.875
18.143587 33.509636 0.30558166 51.235889
18.282257 33.46537 0.28810492 70.284561
20.87318 33.496811 0.29404745 35.11721
2.395421 33.743034 0.35926247 102
2.4324756 33.698742 0.29625288 101.45043
10.179853 33.709114 0.31508887 71.460533
10.202066 33.742821 0.33433408 13
18.107817 33.681538 0.27920091 28.228323
18.214361 33.654285 0.366043 150
19.507477 33.694092 0.36372048 11
20.777576 33.759747 0.26811472 29.333334
20.858589 33.675232 0.31641811 28.62394
2.3973551 33.994045 0.34742433 127
2.4281049 33.891865 0.29710302 104.30177
10.17952 33.903587 0.30803749 74.755943
18.112379 33.882565 0.30804175 23.434515
18.750538 33.874882 0.33288103 28.333334
18.889271 33.989731 0.35023996 21.5
20.708921 33.858727 0.31221846 32
20.861219 33.906696 0.26533398 6.9390039
2.3910315 34.136944 0.24763489 111.33334
2.423692 34.101498 0.28319383 102.39468
10.177955 34.101105 0.3215943 74.971207
18.115482 34.100548 0.31311238 25.102362
18.569221 34.1567 0.31612152 28.666666
19.397287 34.180912 0.35177183 16.5
20.885414 34.084965 0.30238006 1.7944534
2.3909435 34.347923 0.2486046 112.5
2.419502 34.309006 0.30137923 101.36805
10.173502 34.289089 0.30286437 72.257431
18.108425 34.31266 0.30274615 28.031122
18.860123 34.284439 0.29219168 38.25
19.374186 34.209145 0.25450909 9
19.556847 34.26408 0.30962121 14.166667
19.658695 34.277176 0.28135252 35.333332
20.796906 34.32748 0.39947063 1
20.838459 34.338116 0.3168537 27.283241
2.3848462 34.500343 0.26121086 115.66667
2.4198673 34.505241 0.2921907 109.77962
10.171779 34.489231 0.2979781 73.43499
18.117918 34.501278 0.3069315 42.026215
18.26211 34.588943 0.27681062 80.75
19.029686 34.594971 0.28278863 6
19.359997 34.553509 0.24268955 16.25
20.845621 34.517986 0.31259349 46.013367
2.3849342 34.721367 0.25128162 116.5
2.4174535 34.692165 0.29472026 105.76249
10.169516 34.688126 0.30903327 88.394569
18.174318 34.635124 0.32968849 109.42857
18.270716 34.692245 0.31666246 68.611244
18.695751 34.649918 0.37555617 25.5
18.916519 34.670727 0.28662184 56.333332
19.023291 34.737438 0.39186871 142
19.53557 34.726227 0.26719248 26
19.678869 34.757397 0.26259357 33
20.845449 34.700241 0.30953431 46.032585
2.3648105 34.889771 0.26774371 119
2.4144454 34.911446 0.30384445 110.68119
10.163986 34.889225 0.31587285 82.621178
18.192631 34.848118 0.39566725 21
18.291924 34.898087 0.32019734 28.951138
18.742828 34.957848 0.27934393 38.527779
18.887501 34.825928 0.36002058 75
20.8421 34.901798 0.30507341 47.569626
2.372565 35.131138 0.26166731 120.21429
2.4112465 35.124332 0.30370441 106.27666
10.162947 35.102707 0.318405 88.675491
18.284376 35.111191 0.32302505 33.203617
18.929058 35.10371 0.24955654 46
19.102089 35.095665 0.26742825 21.25
19.282612 35.122196 0.27796727 10.875
20.839228 35.103477 0.31171948 46.452057
2.3630555 35.310928 0.29110563 122.62962
2.409055 35.306919 0.30153319 104.30225
10.159884 35.302113 0.30610749 93.108841
18.280067 35.293533 0.30314147 38.188564
19.517389 35.271526 0.32430196 20.125
19.611382 35.323265 0.32588273 30.583334
20.834028 35.302341 0.30317959 43.617535
2.3718913 35.50193 0.30841336 118.85897
2.4070747 35.521904 0.3039993 115.89692
10.15549 35.498013 0.30883908 91.984978
18.279057 35.502205 0.33120638 38.434441
18.895098 35.505161 0.31877854 40.111111
19.132927 35.51973 0.27037087 2.75
19.343258 35.589611 0.33265102 11
20.833975 35.511238 0.30461147 47.943817
