# .PCD v0.7 - Point Cloud Data file format
VERSION 0.7
FIELDS x y z intensity
SIZE 4 4 4 4
TYPE F F F F
COUNT 1 1 1 1
WIDTH 1357
HEIGHT 1
VIEWPOINT 0 0 0 1 0 0 0
POINTS 1357
DATA ascii
14.285791 39.173077 -0.96888995 0
14.550663 39.108753 -0.97758353 0
14.650187 39.138874 -0.97020042 0
2.1022978 39.27047 -0.9463855 26
10.818017 39.256298 -0.94549048 0
11.028254 39.217091 -0.90012288 0
13.904409 39.251545 -0.96483004 0
14.005907 39.210255 -0.9727847 0
14.143127 39.262157 -0.96262461 0
14.427454 39.211807 -0.97670549 0
2.1561825 39.332474 -0.95528942 24.5
2.2002115 39.308109 -0.9023335 31
11.649837 39.358051 -0.92654538 0
14.105574 39.397614 -0.98370671 0
14.644071 39.380825 -0.97842288 0
9.8038435 39.476971 -0.90731096 0
10.002956 39.477703 -0.90840065 0
11.256096 39.492813 -0.92930877 0
11.311794 39.437241 -0.93638158 0
11.574286 39.43285 -0.9313311 0
13.401752 39.496319 -0.96370566 1
13.547375 39.444969 -0.97186136 0
14.357407 39.459499 -0.98652852 0
14.43587 39.427357 -0.98108459 0
14.798426 39.44186 -0.96031785 1
14.886095 39.420967 -0.99555945 0
2.1509247 39.523594 -0.97165895 0
11.672895 39.542881 -0.93516749 0
12.070269 39.506962 -0.93349195 0
12.142086 39.522366 -0.94769758 0
12.233967 39.53907 -0.94212723 0
13.017069 39.562515 -0.95118386 0
13.108392 39.532391 -0.95154983 0
13.251244 39.575279 -0.96411532 0
13.527695 39.527161 -0.96895075 0
13.960616 39.569347 -0.97243714 0
14.526225 39.553986 -0.99247813 0
15.048736 39.589024 -0.99976707 0
2.1268229 39.679665 -0.97873247 0
12.620199 39.685322 -0.96799898 0
13.054045 39.662441 -0.95498753 0
13.716928 39.665325 -0.97617245 0
13.898557 39.630333 -0.97442257 0
14.132941 39.677345 -0.97845024 0
14.297403 39.670277 -0.9714216 0
14.359297 39.633636 -0.96833056 0
14.432928 39.608723 -0.98927617 0
-0.16453648 39.73856 -0.9548099 29
9.4518948 39.796482 -0.92014557 12
9.7756786 39.791969 -0.92167777 8
10.519378 39.781445 -0.94093406 7
12.325863 39.776344 -0.97032237 2.5
12.675062 39.793259 -0.92617059 1
13.894844 39.722385 -0.98039716 0
13.984579 39.700649 -0.97134888 0
14.491666 39.772022 -0.97648865 1
9.0510254 39.826157 -0.91314173 17
9.9844227 39.861561 -0.96562147 8
10.097874 39.815353 -0.92248821 13
10.345278 39.854397 -0.94653213 0
10.422484 39.89444 -0.90686148 29
10.561808 39.895374 -0.93388546 16
10.684249 39.888828 -0.93005997 1
10.907768 39.891319 -0.92455387 3
11.047642 39.800014 -0.9618873 10
11.412346 39.81419 -0.96225691 8
12.074149 39.817913 -0.97619653 8
12.253555 39.844284 -0.97247058 11.333333
12.339882 39.848778 -0.94146264 21.5
12.46842 39.853561 -0.96707785 22.5
12.536599 39.869644 -0.95742297 32.75
12.634361 39.890808 -0.97462893 15.5
12.832369 39.852367 -0.95643419 1
13.707232 39.810078 -0.97614455 0
14.446794 39.883102 -0.93040478 14.6875
14.536955 39.880806 -0.94515634 24.375
14.678349 39.888184 -0.95480514 29.5
14.709008 39.885487 -0.92318135 38
15.990324 39.858715 -0.95834231 7
10.415848 39.905712 -0.97316283 15
10.556581 39.909531 -0.99498284 10
12.31472 39.907738 -0.93859386 41
12.483715 39.925026 -0.92241174 8
12.5458 39.91386 -0.94793564 18.666666
12.626324 39.917995 -0.92936581 39.666668
12.770459 39.914639 -0.93264103 7.3333335
14.648238 39.903404 -0.90167946 36
14.754696 39.942261 -0.94847029 33.5
14.889479 39.906113 -0.91212088 22
14.921042 39.900463 -0.9078387 32
19.483271 39.993042 -0.9096669 27
25.597084 39.980568 -0.93159747 93.125
25.618603 39.938339 -0.95652801 60.77166
20.555883 40.01358 -0.90764391 31.5
22.303698 40.02948 -0.92109931 31
22.488392 40.031502 -0.91675937 15
23.182022 40.043999 -0.9125886 52.5
23.255581 40.044991 -0.93884504 57
23.370295 40.059925 -0.92759758 61.166668
23.419685 40.044537 -0.93002439 56
23.591206 40.052753 -0.97850603 59
23.649206 40.052402 -0.95113254 63.722225
23.736393 40.047554 -0.94611967 28.416666
25.591703 40.043659 -0.96242672 98.214287
25.603035 40.019215 -0.96343648 95
13.38106 40.146008 -0.98578835 1
21.940487 -5.2668724 -0.83415401 27.5
21.798046 -3.2725525 -0.8868348 8
2.7330818 -3.121778 -0.84530973 33
21.819397 -3.0601401 -0.83552265 37.5
4.881628 -2.9972305 -0.81895971 54
5.2603121 -2.9723969 -0.83320248 80
5.5396461 -2.9753036 -0.8094582 53
21.837149 -2.9395206 -0.85882246 52.5
12.624506 -2.8338251 -0.81321234 11
12.81567 -2.8400652 -0.82755601 1
14.267456 -2.816359 -0.81575483 3
14.441259 -2.8050828 -0.85386956 2
21.840134 -2.8472338 -0.84392589 54
14.514503 -2.7927072 -0.83421624 1
14.80155 -2.7797165 -0.83305007 4
15.021817 -2.773356 -0.85994422 1
18.029591 -2.7442806 -0.87566894 37
21.843882 -2.739809 -0.8398667 51.666668
18.057861 -2.6877701 -0.85679406 25.25
18.149441 -2.6490183 -0.89985633 18
18.286716 -2.6587396 -0.84583604 13
18.334883 -2.663193 -0.84390301 15
21.803061 -2.6622257 -0.89310372 58.5
21.839468 -2.5701566 -0.88063145 28
22.196005 -1.9113493 -0.82549417 12
22.22493 -1.9648821 -0.84288609 17
22.118271 -1.8388327 -0.83519626 49
22.074921 -1.736177 -0.81479311 30
22.112312 -1.749648 -0.81789321 62
22.060019 -1.6743579 -0.87902117 5
21.76185 -0.6096164 -0.8502202 15.5
21.842388 -0.62687129 -0.83924842 31
-5.3033028 -0.57887459 -0.87300611 66
21.783577 -0.55891174 -0.84697223 45.666668
21.857901 -0.52989733 -0.83087707 139
21.781048 -0.45136154 -0.83993387 46.8125
21.832571 -0.48641869 -0.84834415 136
21.780951 -0.35889614 -0.83702111 79.25
21.805899 -0.38647333 -0.83796489 122
21.788097 -0.2031507 -0.8717764 97
3.0655355 4.1493635 -0.85238069 20
3.1188488 4.185873 -0.85711122 47
3.1202374 4.2542791 -0.84642828 81.5
3.1064262 4.3189912 -0.856951 66
10.702532 4.3687768 -0.84930927 16
3.1069374 4.4247942 -0.83359939 91
10.575345 4.4638586 -0.83308095 40.099998
10.638353 4.4239459 -0.80998063 24.5
10.909006 4.4480748 -0.86106801 21
11.716447 4.4400229 -0.80819213 28
17.965637 4.6929121 -0.89295727 8
17.863592 4.7025671 -0.80374414 19
17.934845 4.7066002 -0.84664154 13
18.027458 4.7067509 -0.84274417 11.5
18.161863 4.7199411 -0.84474957 13
21.526058 6.464448 -0.85719669 1
10.67899 7.1841092 -0.87839323 1
10.694934 7.207057 -0.81362033 4
2.7342329 7.5240312 -0.85717595 2
10.666894 7.6617846 -0.83594149 5
2.7687693 8.1940193 -0.80998266 5
10.658352 8.162324 -0.89107883 2
2.7317696 8.2254972 -0.88368732 4
10.621704 8.4442568 -0.89229238 2
2.7489338 8.5024347 -0.858482 13
10.608174 8.5057001 -0.87134707 20
10.649858 8.6137705 -0.84394509 7
10.643743 8.8310699 -0.87778276 1
2.6895647 9.0283613 -0.85114336 1
10.655934 9.0338316 -0.81875896 2
10.585562 9.1250887 -0.8396523 2
10.616797 9.1944981 -0.81646973 4
10.601159 9.3358021 -0.8699556 16
10.597841 9.6294899 -0.89333534 19
10.597021 9.8997879 -0.8381387 14
3.0677624 12.395028 -0.87956429 48
3.0704308 12.499163 -0.84620261 95
3.1066425 12.452629 -0.85927039 38.333332
3.0687945 12.567859 -0.81232792 70
3.1084466 12.540689 -0.85343599 41
3.0894361 12.636496 -0.85680598 47
3.1140156 12.671038 -0.85279596 34
3.1231487 12.717813 -0.85580969 30
3.0473213 12.885384 -0.87546265 107
3.1125917 12.806226 -0.8651461 35
21.39628 12.896429 -0.84169579 20
21.380306 12.932562 -0.82367158 19
3.063961 13.032181 -0.89510226 85
21.15239 13.077823 -0.8122856 7.8000002
21.014812 13.191519 -0.84804046 1
21.164728 13.124199 -0.84946555 4.1999998
21.204149 13.163404 -0.8793118 1
21.156525 13.209146 -0.89648342 3
21.324301 13.214752 -0.86967164 2
12.918241 14.22253 -0.89105123 22.5
15.764999 14.324047 -0.83414996 1
21.18585 17.604847 -0.81051475 7
10.222084 18.063238 -0.85895365 82
10.401249 18.03598 -0.87643933 137
10.529156 18.027405 -0.87523675 129
16.211924 18.093216 -0.85908347 0
16.806995 18.102615 -0.86186361 15
18.570726 18.16593 -0.86493444 29.166666
18.65309 18.153357 -0.85139227 22.333334
18.679955 18.260975 -0.8295868 1
10.236002 18.310421 -0.88853872 67
3.0826225 18.402807 -0.88407171 66
10.20981 18.413208 -0.81778115 72
18.672516 18.414555 -0.88122565 1
20.809675 18.482365 -0.80305225 0
21.184072 18.553543 -0.81022727 11
3.0213089 18.798613 -0.87147719 22
21.15587 19.084618 -0.81799161 7
19.913334 20.790266 -0.81276786 0
21.108076 21.274834 -0.84610963 7
21.114271 21.305157 -0.8437959 9
21.111706 21.43626 -0.84651738 8
20.40831 22.209618 -0.82754171 0
18.906469 22.458626 -0.80491447 0
19.112547 22.441767 -0.8194859 0
18.934088 22.575054 -0.80537724 0
21.068645 22.688726 -0.85052842 11
18.840897 22.739868 -0.81810987 0
19.766258 22.730366 -0.81702662 0
20.46591 22.712343 -0.82174754 0
18.632673 22.868385 -0.83661973 7
20.550892 23.236473 -0.83674669 0
18.766865 23.31027 -0.83085847 0
18.821291 23.380171 -0.83010793 0
18.7785 23.43095 -0.8425473 0
20.753292 23.442003 -0.83758235 0
21.057594 23.485626 -0.86932576 8
18.774271 23.576038 -0.83884472 0
19.399734 23.549841 -0.82365167 0
20.067879 23.515951 -0.83917153 0
21.047993 23.905922 -0.86146086 9
20.551237 24.167177 -0.84712106 0
21.044411 24.24564 -0.88251126 9
18.677191 24.876427 -0.86853415 0
20.978188 24.803133 -0.88814223 4
19.882967 24.980221 -0.86446536 0
20.479357 24.973501 -0.84399664 0
2.9882708 25.912977 -0.85416007 10
19.525454 26.242857 -0.87447083 0
19.265268 26.390356 -0.87112784 0
18.737617 26.470791 -0.86534929 0
19.340519 26.523468 -0.86315882 0
20.655151 26.506428 -0.87274671 0
20.238852 26.618883 -0.87893558 0
18.974012 26.9478 -0.8862927 0
20.855097 27.011707 -0.8800112 13
20.073795 27.116909 -0.89230883 0
11.419806 27.372976 -0.80184168 2
18.829672 27.479481 -0.87219048 1
18.730991 27.559822 -0.88176501 0
18.785492 27.654497 -0.87842214 1
18.126726 27.876152 -0.86270338 2
18.440695 27.814005 -0.86954677 3
11.336761 27.97261 -0.80757833 1
18.648817 27.950424 -0.87800121 1
19.955938 28.031252 -0.89908648 0
16.085499 28.279604 -0.84464765 2
13.841732 28.593811 -0.82917595 4
14.033888 28.675411 -0.83508372 13
14.972301 28.655226 -0.8693189 11
15.071646 28.685717 -0.86413163 9
18.343122 28.696232 -0.8432579 86
18.412186 28.665359 -0.82726932 68.25
18.426188 28.744738 -0.86265564 10.666667
18.421633 28.869579 -0.82011127 10
18.54575 28.86165 -0.89417994 1
20.97559 28.841076 -0.84813893 82
21.015415 28.839809 -0.82066047 82
2.802711 29.396069 -0.81885588 14
18.925049 29.44145 -0.89732051 0
2.588809 29.606808 -0.84229201 3
2.8565221 29.687887 -0.84077162 25.5
20.937918 29.670708 -0.83542919 36.75
2.7814758 29.704653 -0.81773394 26.5
9.991024 29.766045 -0.80066246 9
10.027278 29.743303 -0.86188841 14.25
20.929012 29.701904 -0.84193474 46
21.023195 29.770304 -0.82069653 1
20.991499 29.805431 -0.84249085 5
2.4746003 30.005121 -0.85207081 1
10.018665 30.020435 -0.87965143 17
2.454061 30.123531 -0.80026752 0
2.4547949 30.390144 -0.87477219 1
2.4429793 30.400846 -0.80158287 7
2.4814444 30.624926 -0.83847713 8
2.4720092 30.720381 -0.83908772 1
2.4723141 30.864544 -0.86928129 3.5
20.903969 30.893993 -0.8455928 81
20.904266 30.980534 -0.8501209 35
20.90387 31.048946 -0.85180855 28
2.4836807 31.129824 -0.86732882 7
20.907242 31.142569 -0.84252286 31
18.340803 31.790531 -0.82039797 44
18.312664 33.036247 -0.83421516 55.75
10.146189 33.253071 -0.80174327 1
18.310917 33.272175 -0.82879651 35.25
18.31419 33.343342 -0.85452306 38.875
10.163696 33.641029 -0.88819236 11
9.5559368 34.327698 -0.80921614 0
9.4085741 34.580765 -0.80170548 0
20.820736 35.441513 -0.81816065 49
20.794762 35.599129 -0.83124387 69.5
20.814095 35.53479 -0.84422427 13
20.783184 35.658798 -0.87305307 6.75
20.802998 35.606178 -0.85379469 88
18.947594 35.826702 -0.85863364 59
18.252102 35.924961 -0.84394795 12
19.356327 36.017639 -0.85413861 14
19.48805 36.56221 -0.80032629 68
19.798368 36.626328 -0.84018648 48
20.782385 36.789734 -0.82010287 85.333336
20.81916 36.76989 -0.89813417 113
9.8745842 36.866524 -0.85163009 12
20.774181 36.862736 -0.80988216 45.5
20.778151 36.917618 -0.82598674 33
2.2358987 37.045677 -0.85047317 89
18.228199 37.039665 -0.80127245 41
20.783052 37.081898 -0.88697231 30
2.1824465 37.148956 -0.87324554 100.5
2.2370064 37.140568 -0.88224798 77
2.3465967 37.177547 -0.83531421 58
18.228886 37.185387 -0.86434853 49.5
20.784252 37.181068 -0.84626448 49
1.9850483 37.281769 -0.80459607 102
2.0446925 37.274551 -0.81849551 89.25
2.1448851 37.240788 -0.84790492 73.333336
9.8725424 37.261612 -0.81092393 31
18.22669 37.246212 -0.83959103 49.833332
20.769661 37.25692 -0.82254362 47
1.9966332 37.355961 -0.83090341 106.8
8.6382351 37.377476 -0.83872414 0
9.8664017 37.323334 -0.84144807 7
10.02305 37.329826 -0.88359213 7
10.307762 37.339527 -0.89363742 6.5
11.213773 37.33213 -0.89773512 11
16.04801 37.38015 -0.84272957 9
16.199629 37.37899 -0.8138808 12
18.230249 37.357281 -0.83013797 26.25
20.772827 37.317047 -0.87696081 59.333332
2.1323819 37.466202 -0.82133973 70.5
2.2140064 37.448036 -0.84174097 31
10.069237 37.451969 -0.88765591 0
20.764452 37.422089 -0.85956305 27.166666
21.144453 37.461956 -0.83257329 6
2.1466856 37.592106 -0.83553183 63
2.2036057 37.552925 -0.81902462 30
1.970487 37.687439 -0.87119573 24.333334
2.0427008 37.656174 -0.81992197 41
2.1151409 37.639965 -0.80044174 35
10.215481 37.614811 -0.87138033 0
10.318285 37.605988 -0.87671429 0
8.0514441 37.704136 -0.8301568 0
11.404268 37.70446 -0.88323224 0
11.756994 37.731487 -0.87559056 1
11.916122 37.750919 -0.88239419 0
12.177805 37.742252 -0.89938486 0
12.299248 37.725765 -0.89936519 0
12.704091 37.701027 -0.895455 0
12.84849 37.725681 -0.88665533 0
12.599344 37.872372 -0.8972196 0
6.659904 37.922588 -0.80390918 0
11.174873 37.944023 -0.89478147 0
11.628038 37.984268 -0.87704909 0
12.660807 37.960987 -0.89865458 0
9.0960026 38.001785 -0.85707271 0
10.425143 38.063335 -0.87378073 0
12.59062 38.051254 -0.89522743 1
10.162291 38.112015 -0.8878113 0
10.480054 38.107891 -0.86648989 0
8.3993034 38.212574 -0.8527326 0
8.5716801 38.297974 -0.85922217 0
10.07683 38.228062 -0.87619126 0
10.696581 38.291069 -0.8821032 0
11.312414 38.231483 -0.88561773 0
10.37895 38.351425 -0.88171625 0
10.574488 38.382385 -0.89093423 0
10.264053 38.501766 -0.88406444 0
6.4740758 38.900284 -0.82606113 0
10.868158 39.032475 -0.8982923 0
8.2981682 39.106438 -0.8706702 0
1.9526443 39.247009 -0.81658828 13.125
2.0590122 39.277664 -0.81814456 23
7.113462 39.233921 -0.84544551 0
7.8654509 39.252541 -0.8598541 0
11.142808 39.270668 -0.89362872 0
2.2158878 39.346996 -0.83014107 21.5
5.9466281 39.312881 -0.81283253 0
8.8694534 39.357269 -0.883708 0
10.355497 39.322063 -0.88503182 1
10.818348 39.330692 -0.89238071 0
2.1690607 39.400787 -0.87496293 24
11.060705 39.418209 -0.89773911 1
11.250774 39.480824 -0.89850879 1
4.7745786 39.545078 -0.8077234 0
8.5095043 39.56628 -0.89185047 0
5.9482837 39.696095 -0.84593654 1
2.9743247 39.767002 -0.82290167 0
4.2618227 39.741699 -0.8022877 11
7.638155 39.766689 -0.89424878 9
8.9883232 39.854733 -0.80072308 10
9.0074463 39.871117 -0.80424631 8
9.8461323 39.867207 -0.85858321 24.5
9.9474525 39.87368 -0.8807174 22
10.428652 39.883995 -0.81658089 20
12.22593 39.869629 -0.84144735 27
12.332734 39.863388 -0.8578186 25.625
12.445696 39.868706 -0.85760981 39.75
12.524555 39.877674 -0.84597838 59.125
14.478163 39.893234 -0.8452071 28.866667
14.560665 39.89484 -0.86637372 38
14.650597 39.889832 -0.85948551 41.5
25.662151 39.882393 -0.85536975 4.5
10.737333 39.906685 -0.80854928 11.5
12.355973 39.922279 -0.82825291 57.25
12.490387 39.923862 -0.86096984 57.333332
12.522297 39.914139 -0.85846221 53.25
12.688108 39.91954 -0.85157466 33.25
12.729681 39.910156 -0.82185423 0
14.482564 39.901302 -0.83367777 32.5
14.54511 39.904865 -0.83688343 51.76923
14.649948 39.919876 -0.84007359 48.599998
14.721268 39.914215 -0.8640191 51.549999
14.86643 39.943558 -0.85784829 36.75
14.933311 39.929699 -0.84436846 48.5
15.027769 39.956284 -0.80909061 43
16.11401 39.908733 -0.8330406 3
16.249702 39.938091 -0.8886404 8
19.066929 39.94754 -0.83881485 4.5
19.244766 39.982918 -0.86578763 32
19.543095 39.989563 -0.86377442 30.25
19.638285 39.989548 -0.84897482 26
25.616127 39.936134 -0.84254014 64.894875
20.136719 40.002411 -0.8028636 39
20.291134 40.010799 -0.87518084 50
20.336639 40.007393 -0.84222835 40
20.563599 40.015488 -0.85098726 28.166666
20.715452 40.009953 -0.83280921 14
20.879438 40.015865 -0.81031835 50
21.05131 40.008934 -0.87603247 57
21.150209 40.00967 -0.85564291 47.5
21.251484 40.014626 -0.82558423 44
21.354513 40.00116 -0.83342177 5
22.149588 40.042561 -0.85634315 11
22.364355 40.027687 -0.87864876 20
22.447144 40.026028 -0.81945288 25
23.166752 40.045441 -0.85697687 49.666668
23.252436 40.044666 -0.85414255 55.75
23.333241 40.041756 -0.86352837 51.75
23.418341 40.071972 -0.85372752 69.25
23.585056 40.051586 -0.88399911 56.5
23.6637 40.047432 -0.88056946 64.733337
23.736553 40.043083 -0.83876419 34.283333
25.593536 40.027477 -0.85481381 94.333336
25.60276 40.031013 -0.86649394 93.5
21.884823 -5.4827418 -0.76695085 16
21.837965 -5.3792315 -0.70046663 6
21.881699 -5.2664366 -0.70124733 25
21.996204 -5.2481723 -0.79088378 27
21.793337 -3.3095937 -0.77753198 1
21.668175 -3.2416801 -0.70102805 0
21.789108 -3.2740376 -0.72871447 18
2.6699429 -3.1091161 -0.75594634 28
2.8569069 -3.1135716 -0.75678623 15
21.792345 -3.1895471 -0.7235992 14
5.1975994 -2.9844093 -0.73696268 51
21.829319 -2.9354229 -0.77585673 1
12.404701 -2.8403823 -0.71298242 2
12.793882 -2.8426797 -0.7047556 2
13.34449 -2.8245921 -0.75875872 1
13.996599 -2.8184538 -0.73078746 3
14.554719 -2.8076148 -0.77694058 0.5
21.847143 -2.846591 -0.76706809 53.5
14.444675 -2.7774687 -0.7463035 1
15.961254 -2.731159 -0.72411793 0
21.834335 -2.7519755 -0.72419018 55.25
18.038258 -2.6702385 -0.73424315 25.5
18.178013 -2.6681471 -0.76669484 20
18.241646 -2.6470578 -0.72203273 13.333333
18.34202 -2.6535046 -0.72582144 19.333334
18.497454 -2.6663885 -0.74483788 18
18.561756 -2.639842 -0.73339725 13
18.76963 -2.6413865 -0.70093715 15
18.933187 -2.6221144 -0.7120015 9.333333
19.020489 -2.6292195 -0.73898357 9.5
19.146301 -2.6283176 -0.71134269 17
21.82486 -2.6548514 -0.76435202 37.799999
21.789902 -2.5751982 -0.72145587 3
21.839409 -2.5536654 -0.7352646 10.5
21.928804 -2.5157781 -0.70188135 20
22.032906 -2.5638347 -0.75960386 0
22.145359 -1.8415514 -0.75500977 40.599998
22.078461 -1.7407631 -0.7665053 39.166668
22.135847 -1.7874188 -0.79442489 37
21.752609 -0.62573463 -0.75291491 19.333334
21.767159 -0.56029099 -0.75293338 46.76923
21.816305 -0.54838985 -0.7320866 112.33334
21.932213 -0.59141654 -0.74134207 129
21.753397 -0.47758827 -0.74637061 36.833332
21.859066 -0.40902525 -0.7658332 121
21.799623 -0.36919773 -0.71546286 70
21.788202 -0.17150183 -0.75878912 96
21.836025 -0.19091019 -0.75384176 140
3.080266 4.1616616 -0.78239298 22
3.1215839 4.1662455 -0.77516317 41.666668
3.1169167 4.2531462 -0.75117654 91
3.1209431 4.3553257 -0.78698474 110
11.690016 4.3912039 -0.71766973 13
3.1049519 4.4379983 -0.73448479 105.25
10.566941 4.4596219 -0.74585754 37.5
10.640221 4.4121547 -0.76330042 18.666666
10.708883 4.4270611 -0.72806686 34
10.823656 4.4364123 -0.74091274 21
10.945694 4.4437647 -0.77151126 34
11.218342 4.4352236 -0.70105225 17
11.434286 4.4342246 -0.72135699 15
11.703884 4.4477243 -0.77711982 31
3.1028271 4.505022 -0.787467 103
10.568869 4.5468664 -0.77366471 61
11.734041 4.5555658 -0.75987923 59
17.926147 4.6909528 -0.77616429 11
18.958052 4.6726465 -0.70918524 5
11.714148 4.7392907 -0.72562754 8
13.47866 4.7969842 -0.70443225 10
13.557711 4.793304 -0.72427714 0
17.897264 4.7160521 -0.77584922 16
18.046099 4.704998 -0.75398141 12
18.163492 4.7069874 -0.75439763 14.333333
18.835892 4.7215433 -0.71126556 15.5
18.99095 4.7068257 -0.70661789 14
10.545406 4.8852882 -0.74055874 1
11.861981 4.878088 -0.72046423 1
14.164495 4.8113289 -0.70634925 9
21.509005 5.6298814 -0.708395 0
21.53397 5.8320708 -0.76703423 1
10.711206 6.1449265 -0.76757228 0
21.516064 6.1868825 -0.79623491 2
10.707411 6.403563 -0.7417013 0
2.8154154 6.5197306 -0.75397867 13
2.7993746 6.8908005 -0.70397741 12
10.678436 6.8199759 -0.77701396 1
21.494812 6.8037014 -0.7129457 0
2.7879305 6.9400907 -0.72162461 9
10.687626 6.951643 -0.74190485 2
21.4809 6.9284105 -0.72628951 10
21.490814 7.0184822 -0.72459513 8
10.686975 7.1261287 -0.71633792 0
10.686129 7.3041549 -0.78141493 1
2.7671909 7.4373517 -0.79335523 4
10.678593 7.4945102 -0.78920847 0
10.672386 7.670404 -0.70610052 1
10.663315 7.7831178 -0.79519743 5
2.7342348 7.8676858 -0.79608923 4
2.7481794 8.0085821 -0.71613449 3
10.691188 8.0148439 -0.73143405 2
2.7392597 8.157938 -0.74576676 1
10.634853 8.2404547 -0.75242329 2
21.466881 8.3745508 -0.7245363 10
2.7437038 8.4271383 -0.78291494 21
21.429344 8.4922085 -0.71782225 4
10.66382 8.5854254 -0.70968801 1
10.616317 8.6368742 -0.78235883 21
20.642467 8.7548256 -0.70440143 0
20.535625 8.8829365 -0.70095032 0
10.625776 8.9661341 -0.78089416 1
10.616507 9.1750298 -0.75722015 29
21.437193 9.446847 -0.72593576 11
10.607112 9.5501709 -0.74575764 4
21.118605 9.5660877 -0.70959222 0
21.426226 9.6324577 -0.72854996 10
21.370567 9.7526283 -0.72265726 4
21.096542 10.164843 -0.70369166 0
21.37331 10.198679 -0.73739994 8
20.936474 10.380248 -0.70120841 0
21.038465 10.652821 -0.72103602 0
21.171885 11.157951 -0.71585333 0
21.336601 11.560635 -0.71753418 1
19.917789 11.63974 -0.70752895 0
21.201105 11.693369 -0.72433561 0
19.591013 11.72953 -0.70414186 0
20.916401 11.72776 -0.71579945 0
19.46217 11.948521 -0.70979917 0
21.00227 12.028779 -0.72516441 0
19.701649 12.115255 -0.70485497 0
20.483366 12.135915 -0.7189067 0
21.113899 12.285107 -0.71918875 0
3.1087048 12.374821 -0.73560107 36.5
20.78017 12.326884 -0.70270503 1
20.829309 12.335573 -0.72216821 0
3.0776303 12.469399 -0.77179718 48
3.122889 12.44996 -0.7526539 41.200001
3.0737684 12.54291 -0.75699914 68.5
3.1060419 12.558372 -0.78345662 47
3.0812674 12.651875 -0.75456268 37.875
3.0797126 12.743266 -0.76648098 54
3.1492152 12.716568 -0.78619188 40
21.361467 12.883506 -0.75955606 39
21.079199 13.045682 -0.74477553 14
20.873396 13.196941 -0.73886359 12
20.971687 13.178589 -0.7537536 14.888889
21.034452 13.143527 -0.74807239 29.473684
21.105797 13.16913 -0.77587289 6.5
20.87463 13.224632 -0.73155642 3.5
20.958563 13.211759 -0.72634947 19.4
21.012049 13.200727 -0.75030053 28
19.269415 13.468911 -0.71398687 0
20.128265 13.592176 -0.72755742 0
20.236876 13.573126 -0.71254325 0
19.187334 13.797007 -0.71520305 0
19.144587 13.938547 -0.71689427 0
19.055412 14.115212 -0.73485565 0
11.295359 14.204918 -0.75140798 17
14.787642 14.319813 -0.74320894 1
15.871271 14.343391 -0.70650983 42
16.495403 14.333713 -0.7754187 11
14.516099 14.436153 -0.70140564 0
14.876935 14.452838 -0.70914483 3
15.119411 14.467402 -0.70895362 1
17.465771 14.411867 -0.75230473 11
18.988243 14.44598 -0.74280429 0
20.95623 14.499531 -0.75516331 0
14.716125 14.503352 -0.70770228 0
14.866363 14.533576 -0.70075947 1
15.031601 14.540407 -0.71563363 0.5
14.532619 14.62659 -0.7116977 0
14.910032 14.690991 -0.70559722 0
15.949576 14.643267 -0.7223922 0
20.993551 14.667522 -0.74141836 0
14.940268 14.724402 -0.70494795 0
15.072708 14.787025 -0.70621705 0
15.186527 14.744165 -0.71366173 0
15.361693 14.757586 -0.71652663 0
15.696585 14.778913 -0.72582555 0
15.25229 14.84727 -0.71289903 0.66666669
15.661964 14.975537 -0.7162317 0
16.649206 14.982928 -0.72624719 0
15.128839 15.027259 -0.70696366 0
15.620852 15.052201 -0.72801793 0
16.008171 15.065433 -0.71469557 0
21.456039 15.082272 -0.78548712 18
15.25644 15.175461 -0.70506549 0.5
15.536245 15.157115 -0.70981193 0
16.425289 15.17207 -0.7317875 0
19.962542 15.264628 -0.75240493 0
14.947826 15.448462 -0.70708919 0
21.105841 15.426422 -0.76695085 0
12.881994 15.515743 -0.70327967 0
16.037931 15.644628 -0.72794139 0
15.956696 15.701016 -0.71654946 0
14.475178 15.895495 -0.70956302 0.5
14.578865 15.860846 -0.71388614 0
14.805272 15.836757 -0.71850526 0
15.581031 15.930017 -0.73452973 0
15.851761 15.944027 -0.71852046 0
16.486012 15.913305 -0.74496669 0
16.818134 15.907683 -0.73285997 0
16.908937 15.98897 -0.73213613 0
17.214333 15.924763 -0.74976778 0
18.491148 15.98943 -0.75309235 0
14.477251 16.046577 -0.72535539 0
14.508751 16.00535 -0.72068524 0
16.485603 16.024437 -0.73213708 0
18.550329 16.002983 -0.74847931 0
18.885447 16.0268 -0.73415715 0
19.724586 16.064703 -0.74895501 0
17.271156 16.1052 -0.74709129 0
19.872623 16.123329 -0.73475766 0
19.954662 16.103424 -0.75199437 0
14.463799 16.254013 -0.7218011 0.33333334
14.528074 16.257229 -0.71580517 0
15.200606 16.246393 -0.7201798 0
16.544348 16.294147 -0.72906131 0
17.42861 16.263487 -0.74816251 0
19.573511 16.207525 -0.74923527 0
19.75094 16.203806 -0.7392211 0
15.094666 16.382547 -0.71990335 0
16.083101 16.390944 -0.74126089 0
16.851229 16.311548 -0.73614532 0
17.690586 16.34214 -0.74172115 0.5
20.359631 16.341267 -0.74639946 0
21.233618 16.444691 -0.77545679 8
13.605342 16.575588 -0.71247607 0
14.39217 16.583004 -0.71240175 0
14.423771 16.590734 -0.70185709 0
16.490471 16.545517 -0.72586679 0
12.049603 16.649933 -0.70823264 0
14.422458 16.644285 -0.71557248 0
15.783405 16.679173 -0.72485602 0
15.973131 16.646605 -0.7104615 0
16.894047 16.631882 -0.7298404 1
14.636094 16.717737 -0.72087014 0
15.275657 16.745235 -0.73335671 0
18.791306 16.892597 -0.74708271 1
19.723185 16.89257 -0.75890315 0
16.115545 16.92828 -0.72431111 0
18.425665 16.959427 -0.74828076 0.5
14.981342 17.02519 -0.72968018 0
15.209135 17.088785 -0.72500181 0
18.106779 17.099947 -0.74219215 0
19.203705 17.097799 -0.77066171 0
15.261889 17.151819 -0.72854441 0
16.422157 17.111397 -0.72267252 0
18.981058 17.237604 -0.76214814 0
20.062332 17.254065 -0.76689708 1
15.260588 17.35574 -0.73275506 0
20.982031 17.383018 -0.77062774 0
15.052477 17.479939 -0.73339546 0
15.139414 17.428761 -0.72783697 0
19.004007 17.453955 -0.75993216 1
19.586063 17.452482 -0.77460551 0
12.818375 17.537354 -0.70868981 0
16.521725 17.549826 -0.73814327 1
16.400518 17.619259 -0.74217832 1
21.02873 17.691011 -0.79800618 0
14.384761 17.879227 -0.73686314 0
14.503271 17.844368 -0.72324991 0
14.933052 17.843792 -0.73348081 0
15.027239 17.879303 -0.735304 0
15.495646 17.821266 -0.73877609 0
11.299148 17.924301 -0.73474765 11
11.344751 17.918566 -0.70470583 17
13.013145 17.967773 -0.78265291 21
13.418133 17.991074 -0.7327475 22
10.250099 18.056057 -0.75907558 63
10.568842 18.028456 -0.74991691 127.5
15.699375 18.049381 -0.70752311 9
15.824507 18.079264 -0.7102012 35
16.080372 18.057875 -0.75356317 11
16.257786 18.059792 -0.78940696 7
16.513317 18.072893 -0.7170192 6
16.686165 18.064453 -0.76606917 9
18.933628 18.090214 -0.77590561 0
10.211932 18.111645 -0.700252 13
18.545311 18.135963 -0.73449832 72
18.643473 18.149994 -0.7471109 67.726189
18.701412 18.164852 -0.71490383 35
18.824577 18.143593 -0.77917212 0
18.688223 18.254007 -0.77886522 7
18.706013 18.25148 -0.75517136 11
18.678259 18.311323 -0.70931453 21
19.612976 18.369221 -0.7862404 0
3.0572395 18.455547 -0.71855366 109
19.752653 18.583735 -0.75877446 1
18.894762 18.600132 -0.77789992 0
3.059298 18.785221 -0.71549743 14
19.064398 18.959793 -0.79037774 0
19.476383 19.020557 -0.78209251 0
19.917439 19.036213 -0.79633796 0
20.192234 19.046967 -0.78066826 0
18.901703 19.380241 -0.77229321 0
20.350342 19.895098 -0.78655696 0
18.934708 20.032871 -0.78814995 0
19.155735 20.043913 -0.7737515 0
18.955219 20.175501 -0.79614437 0
19.161943 20.132519 -0.76140988 0
20.270567 20.247894 -0.79462528 0
18.933077 20.335798 -0.79118478 0
18.855082 20.819132 -0.79602098 0
16.877258 26.231771 -0.73226291 35
18.473341 26.378584 -0.71590996 44
18.468916 26.49608 -0.71990758 54.5
18.468098 26.543751 -0.7284947 40.375
18.465784 26.632547 -0.70652378 12
14.968281 26.769606 -0.74543643 30
15.87454 26.779034 -0.73157072 150
16.061329 26.737118 -0.74165452 63
25.242428 26.789024 -0.72642326 67
15.73847 26.820837 -0.7508508 16
20.759312 26.960722 -0.78736746 10.5
20.864077 26.968771 -0.72362357 42.555557
20.93325 26.967224 -0.75387436 94.099998
21.341124 27.049215 -0.70216447 40
21.672642 27.111547 -0.74258566 39
11.273569 27.415051 -0.78335625 2
11.293732 27.575485 -0.7954495 2
15.66118 28.670313 -0.70257187 15.5
15.733551 28.661686 -0.73616731 26
18.357376 28.681789 -0.74558938 120.25
18.412115 28.666193 -0.72142744 92
15.780774 28.702021 -0.73368311 109.5
18.365444 28.713299 -0.72264767 123.75
18.412909 28.746517 -0.77542812 21.5
18.397062 28.845047 -0.72075605 27
18.409758 28.887428 -0.79445755 21
20.975893 28.856941 -0.75799739 113
18.395958 28.920729 -0.71814591 19
18.412304 28.973148 -0.72191119 22.5
20.96427 28.949188 -0.76241732 43.166668
20.955467 29.059551 -0.75939858 31
20.955124 29.108715 -0.70928913 28
20.954824 29.248138 -0.76532841 46
20.954662 29.527054 -0.70943242 47
2.5614436 29.661095 -0.75250793 1.5
2.7940121 29.685543 -0.70143825 30
2.8205202 29.685537 -0.72021747 29.666666
7.2772565 29.658697 -0.70528013 0
10.008336 29.681654 -0.70899189 24
20.950773 29.64551 -0.74282289 60.333332
2.8978925 29.707582 -0.77761513 22
6.8417859 29.728807 -0.70312834 0
20.933916 29.731871 -0.74550658 71.5
2.517457 29.82069 -0.76650214 18
6.8243346 29.89872 -0.71638489 0
10.030693 29.849903 -0.77195156 9
8.2101078 29.98423 -0.72550774 0
9.7510929 29.951019 -0.76330507 0
9.7032518 30.022503 -0.73402393 1
2.477581 30.162991 -0.7703867 10
7.6982098 30.16394 -0.72207022 0
7.8861961 30.110043 -0.73256218 0
2.4777918 30.238529 -0.75615823 10
9.8567133 30.219246 -0.76506102 0
6.6679039 30.380669 -0.71025753 0
8.5147362 30.380518 -0.7407335 0
9.0725164 30.656021 -0.74785781 0
9.3601608 30.65951 -0.75448006 0
6.3020182 30.749714 -0.70693117 0
6.1730828 30.890923 -0.72439384 0
9.8424873 30.830975 -0.77037257 0
2.4518933 30.944813 -0.78286797 1
5.1237564 30.98103 -0.70607412 0
9.6029034 30.969843 -0.76516545 0
20.906992 30.959192 -0.74696654 45.666668
2.4602346 31.083458 -0.74634051 3.5
20.909466 31.064013 -0.72730434 31.833332
2.4573336 31.170097 -0.7833457 1.5
9.4655476 31.189247 -0.75718927 1
9.4382648 31.282146 -0.77273071 0
6.5138969 31.353115 -0.73026001 0
9.5239773 31.387613 -0.76137745 1
2.4633293 31.451912 -0.72337663 0
9.4011745 31.422009 -0.73933244 0
2.4397092 31.520485 -0.79400414 0
9.3894053 31.63529 -0.75748932 0
9.5080624 31.65521 -0.75809145 0.5
2.4424043 31.75308 -0.71119809 0
9.4892302 31.740034 -0.78680968 0
9.5427589 31.713844 -0.75338501 0
9.7999954 31.738855 -0.74731731 0
10.180511 31.749107 -0.78709698 1
18.347622 31.755714 -0.73060894 50.5
9.6934938 31.828007 -0.78445637 0
10.174786 31.820427 -0.73493266 10
18.328922 31.879532 -0.77236116 130
9.4141769 32.065048 -0.76946181 0
9.5317583 32.006908 -0.74351323 0
9.6890268 32.010746 -0.77942598 0
7.3517675 32.151115 -0.72346866 0
10.164962 32.158752 -0.77282202 15
7.2589626 32.294815 -0.72304076 0
7.4679179 32.247017 -0.7338115 0
9.4652634 32.293854 -0.77740914 1
9.5402822 32.212345 -0.7903446 0
6.5495296 32.464371 -0.71652591 0
7.6549869 32.424885 -0.74127281 0
9.5203667 32.498421 -0.76182163 0
9.6422091 32.464111 -0.7719717 0
9.846385 32.400509 -0.78076279 0
6.3920827 32.543236 -0.71459436 1
6.7426748 32.507282 -0.71980369 0
7.6408763 32.582489 -0.73720479 0
7.8534632 32.517166 -0.74589223 0
8.6663084 32.565582 -0.76161522 0
9.4356327 32.549961 -0.78790975 1
9.7014294 32.510345 -0.78012133 0
5.4381318 32.610386 -0.70677692 0
6.5515537 32.609047 -0.71416849 0.5
6.60326 32.679043 -0.74003112 0
7.9354329 32.622402 -0.74933237 0
9.4789886 32.619045 -0.7802664 0
9.5327797 32.649784 -0.77200294 0
9.8490114 32.656765 -0.78063625 0
7.9667931 32.790436 -0.74733943 0
9.4678783 32.751106 -0.77236974 0
9.5548458 32.708954 -0.78333753 0
7.0831537 32.890213 -0.72929835 0
7.4743795 32.852516 -0.74114764 0
7.5526147 32.890018 -0.74710572 0
9.4974346 32.833736 -0.7839734 0
9.5385342 32.803932 -0.772349 0
6.9618073 32.976284 -0.74253595 0
7.036869 32.984425 -0.73887515 0
8.9702168 32.942505 -0.77658212 0
9.4781904 32.965443 -0.77372473 0
9.5672874 32.905491 -0.77391326 0
2.4405527 33.054199 -0.70587999 1
6.0484219 33.026241 -0.72026563 0
6.5537262 33.065319 -0.73777437 0
6.9664335 33.062538 -0.73263359 0
7.0928607 33.030884 -0.73794061 0
9.4429436 33.012352 -0.78674543 1
9.5629873 33.078197 -0.78645134 0
9.9050694 33.055531 -0.76684177 0
10.153887 33.009743 -0.77033091 0
18.305275 33.061317 -0.70212436 121
2.4390397 33.165184 -0.71533287 2.5
6.4167929 33.130005 -0.73411918 0
7.5548487 33.199402 -0.75478035 0
8.2467194 33.182693 -0.74905926 0
8.6463852 33.100151 -0.74921376 0
9.3382082 33.137829 -0.78178072 0
9.4583845 33.132164 -0.78546715 1
9.9313736 33.117844 -0.789096 0
18.305031 33.124069 -0.75520039 33.333332
5.1018262 33.297512 -0.70292079 0
6.2745805 33.220169 -0.72884679 0
6.908061 33.210094 -0.72990471 0
7.5279169 33.237801 -0.74759209 0
8.0838413 33.29771 -0.75555348 0
9.3242664 33.264473 -0.77925766 0
9.5641222 33.214172 -0.78512359 0
9.8576927 33.247753 -0.7918961 0
18.312704 33.258347 -0.75736147 44.666668
4.5289874 33.315987 -0.70131111 0
5.9110894 33.306526 -0.71585906 0
7.6979399 33.331135 -0.74979544 0
8.1176805 33.310585 -0.76056737 0
8.3487129 33.322475 -0.7559852 0
8.5871696 33.337364 -0.77241778 0
9.319623 33.361801 -0.79558444 0
18.290575 33.343742 -0.74610913 39.5
18.31518 33.346279 -0.74097115 46.099998
5.931427 33.476612 -0.72244787 0
8.5040417 33.418976 -0.76598775 0
8.8260384 33.445049 -0.78204453 0
9.5280666 33.404884 -0.76606488 0
9.6852455 33.418625 -0.7875644 0
18.313633 33.403175 -0.74594396 57
5.6390085 33.579544 -0.72956276 0
9.5660095 33.537025 -0.79306382 0
5.350358 33.639278 -0.70757318 0
8.3023224 33.652615 -0.75768453 0
8.4643917 33.643982 -0.75635302 0
9.2957134 33.637028 -0.77261674 0
20.832825 33.630669 -0.71118844 107
6.2443714 33.788338 -0.73407483 0
8.0913992 33.780636 -0.76077729 0
8.4878187 33.747387 -0.77255768 0
8.5728245 33.739922 -0.76847112 0
9.0730705 33.717667 -0.76942849 0
20.81201 33.700645 -0.71979964 5
6.5415339 33.800484 -0.74746704 0
9.4245224 33.866665 -0.77822196 0.5
8.0493546 33.974125 -0.75901026 0
9.018939 33.917271 -0.78839326 0
9.4459 33.925461 -0.79125375 0
9.5259724 33.990261 -0.78786528 0
5.8013868 34.035133 -0.73191261 0
7.0367198 34.050785 -0.75504595 0
7.3501735 34.006226 -0.76028049 0
8.4569387 34.062176 -0.772843 0
8.6672821 34.072113 -0.78358746 0
8.338459 34.100494 -0.76868224 0
9.2250109 34.111755 -0.78164589 0
9.470377 34.113411 -0.79465413 1
6.6755962 34.307747 -0.75084233 0
7.2225137 34.394619 -0.74804795 0
20.834999 34.351814 -0.74156171 78.5
4.1721144 34.457893 -0.70138347 0
7.8532019 34.487518 -0.7725817 0
9.3728037 34.44294 -0.78235245 1
9.4234295 34.455971 -0.79181457 0
20.821264 34.439465 -0.73526496 59
4.6031666 34.587715 -0.70720899 0
4.4215393 34.669361 -0.72048277 0
18.28812 34.636257 -0.76338625 56
10.124803 34.7076 -0.79284286 7
18.280727 34.724758 -0.72073817 44.5
4.7932734 34.818008 -0.72341228 1
5.1862278 34.829079 -0.73187119 0
5.3989201 34.842484 -0.73918962 0
6.0860415 34.812634 -0.7538029 0
6.0864129 34.952892 -0.75273651 0
3.516046 35.000687 -0.71157491 1
5.7584567 35.06126 -0.74504274 0
6.23423 35.248283 -0.75282836 0
7.0299587 35.248299 -0.74764931 0
18.259199 35.364998 -0.75248581 58
7.0991936 35.43885 -0.76827633 0
7.1051149 35.441685 -0.77462393 0
18.260635 35.475624 -0.75083196 41
6.7934055 35.512531 -0.77248943 0
6.9836841 35.569504 -0.77683234 0
20.822395 35.558525 -0.74479824 13.5
3.5164914 35.673431 -0.7160551 1
4.8089886 35.601715 -0.73719954 0
18.261351 35.646225 -0.7426551 23.333334
20.796806 35.665325 -0.74261463 39.5
20.813257 35.679562 -0.77907407 11.5
3.5663767 35.764099 -0.71022558 0
7.6797543 35.708229 -0.76469153 0
18.252092 35.781345 -0.7578882 47
20.85544 35.705814 -0.77499944 57.5
3.5275214 35.897911 -0.72387648 0
18.258356 35.887085 -0.74535781 53
19.023338 35.837959 -0.76016492 56.76667
5.2641425 35.937595 -0.72697783 0
18.255136 35.940468 -0.74793464 38.299999
19.366798 35.986633 -0.77180123 58
20.982309 35.923897 -0.74119246 47
5.1740971 36.030064 -0.73692942 0
7.5072212 36.009739 -0.78065681 0
19.249662 36.032963 -0.73354864 52.666668
19.368935 36.004448 -0.75183439 63
20.992203 36.040852 -0.76601452 37
5.4543085 36.121128 -0.74314988 0
19.226063 36.290184 -0.7130729 34.25
3.5450089 36.331184 -0.7227931 0
19.242304 36.316708 -0.77887893 66
18.248297 36.485989 -0.71535563 51
19.566807 36.444595 -0.74649161 1
19.648083 36.472321 -0.73700935 3
7.1112604 36.570446 -0.79064822 0
18.243933 36.502567 -0.72947419 52
19.47611 36.571861 -0.73613161 23.125
4.1503425 36.604866 -0.74485445 0
18.232813 36.697525 -0.76774335 45
19.485432 36.619865 -0.76407367 1
19.515469 36.64888 -0.71629083 56.5
19.696938 36.685966 -0.75414741 40
19.73782 36.669216 -0.75173366 51.333332
20.977898 36.67469 -0.75089854 83
19.641523 36.704193 -0.79696172 49
19.785112 36.719822 -0.76254141 1
20.779385 36.78828 -0.79725075 86.5
20.813789 36.767719 -0.74680072 104.5
20.962145 36.722057 -0.72765642 90.55555
9.8907127 36.870903 -0.73406959 13
18.243538 36.82645 -0.79250509 43
19.607431 36.821297 -0.73897552 48.599998
20.769934 36.823868 -0.72181499 73
4.8403277 36.914322 -0.76170498 0
6.2308836 36.972729 -0.77373874 0
6.9775052 36.910954 -0.78545731 0
9.8706474 36.990273 -0.77544516 5.5
18.23324 36.952602 -0.76147246 41
19.640247 36.98122 -0.72081506 3
18.244215 37.045448 -0.71195865 73
19.788401 37.044422 -0.7248981 41
20.775991 37.011635 -0.7203449 46
2.2299583 37.159538 -0.75646389 125
9.8945389 37.15501 -0.74266136 57
19.727167 37.194157 -0.72097886 53
20.78215 37.155411 -0.75991368 64.75
2.0489879 37.248322 -0.76207638 110.5
9.892786 37.252071 -0.71075463 70.5
9.9464273 37.277035 -0.72966701 38.333332
10.041101 37.288612 -0.72985888 45.5
10.166366 37.282082 -0.72261798 48
10.342751 37.293861 -0.76342273 30.5
10.441112 37.290489 -0.72452009 43.5
18.2309 37.250153 -0.72545975 52.166664
20.777538 37.227619 -0.76514077 48
1.993241 37.362545 -0.78589267 114.33334
2.0193956 37.362453 -0.73651522 110.75
2.1296351 37.367908 -0.75688463 79
2.2392275 37.349331 -0.74277115 69.333336
9.880147 37.316128 -0.73832643 44.214287
10.025497 37.309711 -0.70834613 80
13.209365 37.345825 -0.71788424 46
14.337488 37.355171 -0.71099961 38
15.858826 37.385799 -0.71213067 29.5
16.025717 37.382252 -0.75863147 6
16.497097 37.373119 -0.70072925 74.5
16.851013 37.389519 -0.73893416 45
17.041809 37.396481 -0.71909511 58
17.689335 37.395519 -0.7131958 70
17.704033 37.396942 -0.72061503 72
18.232143 37.353703 -0.7568894 29.75
20.770918 37.362186 -0.756715 66.10463
2.0404952 37.45335 -0.77065289 91
2.2544289 37.404346 -0.79837036 22
3.8379622 37.446129 -0.74716741 0
16.224195 37.40329 -0.72286254 67
16.562805 37.400368 -0.73316902 65
17.291651 37.401409 -0.71861982 57
17.678658 37.406258 -0.75956392 70
17.732 37.40559 -0.71631879 68.916664
17.895723 37.419697 -0.70399284 3
18.155231 37.4091 -0.70662498 6
20.771896 37.424232 -0.76465261 66.75
21.128664 37.467266 -0.74121886 9
21.4081 37.446247 -0.72939408 1
2.2493727 37.553844 -0.73054165 73.785713
1.9938946 37.694408 -0.70060271 34
2.0168922 37.662098 -0.74097753 56
2.1576424 37.624016 -0.71303928 106
2.2529402 37.60939 -0.70426381 87
4.5151682 37.627319 -0.77280515 0
1.97082 37.789005 -0.70301145 0
2.8818617 37.806889 -0.73373652 0
4.0609169 37.892792 -0.75132668 0
4.7769275 37.865883 -0.76340604 0
5.9588928 37.826817 -0.792373 0
9.9004936 38.170296 -0.73979485 68
3.3589795 38.272911 -0.75613892 0
2.1374702 38.382076 -0.74023145 0
9.8675079 38.511192 -0.74661958 41.75
3.9904244 38.699677 -0.77597058 0
9.1667976 38.623672 -0.76159084 64
9.2550745 38.796265 -0.70506227 6
4.5486903 38.840633 -0.77508056 0
2.718739 38.969692 -0.74956346 0
2.1114182 39.086433 -0.7510438 0
1.6620407 39.181362 -0.75327456 1
1.8897343 39.10556 -0.7171253 0
2.0309715 39.194511 -0.74140602 1
1.8531818 39.269024 -0.73416018 7
1.9462931 39.237968 -0.72999281 21.285715
2.0906444 39.282543 -0.76318026 4
2.2199244 39.299175 -0.70072532 62
3.7337117 39.272503 -0.76697195 0
3.6931863 39.35899 -0.76689756 0
-0.18205452 39.696358 -0.7257055 49
-0.14550686 39.714333 -0.70437986 61
2.3228135 39.764832 -0.70221901 2
3.5271974 39.714031 -0.79400432 10
3.9191608 39.753483 -0.78812093 4
4.6075845 39.773342 -0.70403957 27
5.9510541 39.785358 -0.73879415 39
6.082262 39.788643 -0.71213514 33
6.1019545 39.797188 -0.70863318 43
6.2778597 39.794773 -0.75518316 25
6.3177986 39.777798 -0.79129279 20
7.5213876 39.788898 -0.77086926 26
6.1482797 39.800156 -0.74342644 23
7.5578346 39.803135 -0.74437553 51
7.7181048 39.806202 -0.796561 18
7.9182391 39.819824 -0.70748621 51
8.6313953 39.848389 -0.74346304 29.5
8.9862976 39.867275 -0.72101825 11
9.0219307 39.875198 -0.71150982 23.5
9.6960602 39.890224 -0.71069837 1
9.7516079 39.88316 -0.79556143 16
9.8521633 39.886223 -0.76019639 6.5
9.9777584 39.889046 -0.74957907 49
12.175466 39.878021 -0.75391555 43
12.260713 39.878826 -0.7439391 40
12.328375 39.866367 -0.73247063 38.979168
12.460648 39.878929 -0.75370371 68.85714
12.50758 39.880894 -0.71011031 103
12.718998 39.89143 -0.7224443 2
14.484468 39.895359 -0.7496621 25.333334
14.535548 39.896564 -0.76342183 42.200001
14.654965 39.898087 -0.76950574 50.777775
15.862011 39.868935 -0.72529691 7
25.654324 39.896774 -0.72003615 3
10.332164 39.921844 -0.73747611 29
10.490704 39.936939 -0.71322584 2
10.591612 39.906124 -0.79067022 61
10.771952 39.923485 -0.7020762 23
12.157938 39.90192 -0.71044058 47
12.351852 39.925667 -0.73682976 78
12.482692 39.92907 -0.75762373 64.466667
12.518446 39.92379 -0.74737662 77.625
12.650915 39.934517 -0.74645317 50.833332
14.483883 39.903923 -0.76395112 31.75
14.541694 39.907471 -0.75054991 50.089745
14.651568 39.911396 -0.75049371 50.785713
14.734415 39.917885 -0.74690127 40
15.040558 39.916874 -0.78401864 57
16.116673 39.924488 -0.76088482 4
16.495939 39.928314 -0.71214586 12
17.153797 39.950031 -0.7120738 84
17.807192 39.9534 -0.70985055 85
18.058645 39.967815 -0.70293295 118
18.60614 39.9925 -0.72174335 5.5
19.092808 39.960789 -0.71109307 10
19.182653 39.972069 -0.76517755 0
19.269283 39.983322 -0.78682089 35.25
19.487627 39.994751 -0.75758302 27.5
19.539133 39.983631 -0.74966836 34.333332
19.63538 39.991447 -0.77871865 32
19.977793 39.981293 -0.70704734 0
25.625507 39.939358 -0.74506897 58.121216
20.192774 40.004425 -0.7490927 31
20.353874 40.015781 -0.74244678 29
20.448195 40.015091 -0.74405867 22.666666
20.555719 40.014679 -0.77404529 26.666666
20.880199 40.01115 -0.71604109 40
20.918978 40.006012 -0.78054857 49.5
21.00246 40.025242 -0.73901498 13.333333
21.176506 40.012783 -0.7684142 34.375
21.239391 40.018284 -0.74059665 46.25
21.387955 40.012707 -0.72966576 14
21.831572 40.043003 -0.77731597 10
22.0763 40.025101 -0.79566878 35
22.367559 40.02935 -0.70911568 28
22.404251 40.029026 -0.78981626 16.5
23.170853 40.047138 -0.75466764 49.642857
23.294283 40.043644 -0.73381054 55
23.358934 40.05899 -0.75464779 58.166668
23.414318 40.056561 -0.77827686 63
23.641621 40.04734 -0.75731438 65.233337
23.739765 40.046249 -0.78034091 23.25
23.811918 40.036499 -0.78760535 0.25
25.594547 40.034672 -0.74050069 97.25
25.605385 40.023849 -0.75317192 96.194435
25.88253 40.010555 -0.75563771 42
23.539522 40.102512 -0.7144298 76
20.182262 -7.2126617 -0.6410557 1
21.733028 -5.8822517 -0.68330371 1
21.315166 -5.5235887 -0.65441018 0
21.421684 -5.5265398 -0.66789246 0
21.830772 -5.544488 -0.65942949 19
21.29493 -5.4217515 -0.64937174 0
21.873491 -5.4626002 -0.63404483 23.333334
21.856798 -5.3350639 -0.65040374 24.833334
21.87092 -5.2594137 -0.65647596 55.57143
21.928356 -5.2361321 -0.64540279 57.785713
19.676443 -5.1438713 -0.64663577 0
21.704355 -5.1522093 -0.67017728 0
21.368694 -5.0050139 -0.6638875 0
21.375797 -4.9360332 -0.6651907 0
21.264977 -4.8230667 -0.66363961 0
21.47051 -4.7264295 -0.65837365 1
21.381512 -4.6248074 -0.66738635 0
21.421267 -4.6097903 -0.66007602 0
21.509653 -4.5966225 -0.6622169 0
21.665352 -4.5975337 -0.67690611 0
21.478437 -4.3409214 -0.66185129 0
21.603088 -4.0280318 -0.6331712 0
21.415079 -3.9213984 -0.66706812 0
21.70356 -3.485841 -0.69229352 1
21.801029 -3.3215532 -0.62779516 9
19.644979 -3.2443771 -0.64851224 0
21.679359 -3.2453089 -0.68340695 1
21.785444 -3.2617664 -0.66983968 51
21.805668 -3.2601771 -0.63991177 44
17.295332 -3.1846869 -0.69336927 5
21.5651 -3.1544139 -0.66323227 0.33333334
21.788982 -3.1470304 -0.63948232 58
21.812311 -3.1527734 -0.61959469 65.099998
5.1291356 -3.0036011 -0.65926051 45
19.475788 -3.0439529 -0.64361686 1
5.0826483 -2.9854469 -0.62464494 69
5.5410781 -2.984539 -0.68157816 45
9.0922966 -2.902266 -0.61559862 5
9.4941444 -2.9182258 -0.65197253 2
17.999247 -2.9675889 -0.64122564 0
21.799061 -2.9353762 -0.6153872 100
21.813395 -2.9905977 -0.6656298 50
10.808836 -2.8073549 -0.61241627 12
12.305938 -2.82059 -0.61120677 4
12.585671 -2.8261714 -0.64072311 1
13.527103 -2.8202548 -0.69606483 4
12.822973 -2.7860789 -0.6012218 2
13.407212 -2.7764387 -0.62639111 0
13.866396 -2.7992249 -0.61596626 3
13.950396 -2.7667453 -0.60143596 0
14.306776 -2.7633977 -0.63248205 9
14.43898 -2.7570317 -0.63504624 15.75
14.653697 -2.743803 -0.63523722 9.666667
14.715466 -2.7585909 -0.68981969 1
14.848086 -2.7325079 -0.63914305 7
14.960855 -2.7422097 -0.63319099 2.1666667
15.033346 -2.7551501 -0.65713048 1.5
15.154776 -2.7322116 -0.62217844 6
15.223722 -2.7215767 -0.62494588 19.5
15.436236 -2.724823 -0.65699345 1.3333334
15.533838 -2.722578 -0.66787249 3
15.725225 -2.7226081 -0.65956658 2
15.878067 -2.7048626 -0.63917625 11
15.902012 -2.7074299 -0.61686826 29
17.998787 -2.7355714 -0.61944371 74
18.013525 -2.7407074 -0.66259444 48
21.501366 -2.7691195 -0.66429883 0
21.779106 -2.7743549 -0.621611 59.5
21.815254 -2.7454555 -0.62978435 97.666664
15.975596 -2.6972504 -0.62657732 31
17.972881 -2.6607513 -0.63822865 35
18.063519 -2.6420627 -0.6338163 29.799999
18.165504 -2.6618643 -0.69248962 1
18.282261 -2.6401229 -0.6264922 15
18.342085 -2.6504605 -0.60214758 28
18.477057 -2.605546 -0.66791254 21
18.691103 -2.6312032 -0.64039481 10
18.75926 -2.6212935 -0.60329235 0
19.089724 -2.6185169 -0.61424148 76
19.184168 -2.6173327 -0.66350883 19.333334
19.242363 -2.6317263 -0.61367524 37.25
21.78904 -2.6247427 -0.63661599 24
19.264181 -2.5828698 -0.64600909 3
21.488247 -2.5945077 -0.67209661 0
21.793503 -2.5459785 -0.61534685 53
21.833712 -2.5470083 -0.62423915 46
22.046293 -2.5248134 -0.6160391 67
22.214697 -2.5425062 -0.63439798 20
21.972645 -2.4986422 -0.69942576 26
21.414349 -2.3298573 -0.66421455 0
21.410561 -2.2737486 -0.67127025 0
21.542007 -2.1734128 -0.67822981 0
22.188173 -1.9327474 -0.62408626 68
22.21479 -1.9467077 -0.64473212 65
22.141216 -1.8485193 -0.67110717 64.5
22.075987 -1.7524575 -0.64478022 62.833332
22.110617 -1.7725725 -0.66617566 54.666668
22.094719 -1.6955131 -0.66162252 14
22.112625 -1.6868408 -0.63336116 53
15.025288 -1.1015753 -0.60602283 0
16.66699 -1.1170089 -0.62133944 0
16.673906 -1.0819355 -0.62545383 0
17.540075 -0.97847021 -0.63516998 0
17.22039 -0.86492693 -0.64257157 0
17.964798 -0.81849086 -0.64962852 0
18.02014 -0.82353032 -0.64439869 0
18.160862 -0.89613569 -0.65075707 0
15.179783 -0.73637414 -0.6117056 0
15.663858 -0.77755272 -0.62099463 0
18.680017 -0.7429657 -0.64793599 0
19.803398 -0.74814045 -0.67940956 0
20.009708 -0.7052604 -0.67634636 0
15.254029 -0.60118443 -0.61395526 0
19.632341 -0.63556707 -0.66641223 0
21.746603 -0.61882973 -0.63387913 63.666668
21.801027 -0.61157799 -0.69165516 48
16.216259 -0.51743782 -0.62696576 0
19.023998 -0.58215606 -0.65828454 0
21.743341 -0.54467428 -0.64187336 81.949997
15.276384 -0.45311463 -0.61322314 0
18.637657 -0.47735214 -0.65083122 0
18.80892 -0.44145119 -0.67253309 0
21.739857 -0.46019134 -0.65401745 70.400002
15.17066 -0.39086735 -0.60744411 0
16.009872 -0.39200413 -0.62737167 0
18.011955 -0.3062346 -0.6510036 0
20.439487 -0.31349206 -0.66982698 0
21.768324 -0.35911685 -0.64860964 98.5
20.69154 -0.25511277 -0.65308523 0
21.799824 -0.24486193 -0.69073927 123
21.819361 -0.25645861 -0.66036814 143
14.857466 -0.11061716 -0.6132291 0
15.461584 -0.1304239 -0.61697167 0
17.250694 -0.13713598 -0.63102961 0
21.70775 -0.12051523 -0.6125105 6
16.229443 -0.050862312 -0.62894118 0
14.555467 0.053514421 -0.60740578 0
14.810804 0.093852997 -0.6092844 0
15.573021 0.063565254 -0.62230724 0
15.640635 0.1439302 -0.62683481 0
15.723455 0.18822217 -0.63377273 0
16.051462 0.13878226 -0.63703173 0
16.111919 0.11965513 -0.61877096 0
16.680883 0.17492509 -0.63440782 0
16.760027 0.1994772 -0.63353711 0
16.119089 0.23416543 -0.62990791 0
16.655802 0.23132348 -0.62517798 0
