# .PCD v0.7 - Point Cloud Data file format
VERSION 0.7
FIELDS x y z intensity roll pitch yaw time
SIZE 4 4 4 4 4 4 4 8
TYPE F F F F F F F F
COUNT 1 1 1 1 1 1 1 1
WIDTH 290
HEIGHT 1
VIEWPOINT 0 0 0 1 0 0 0
POINTS 290
DATA ascii
3.6254576e-07 1.9340638e-08 1.9507966e-06 0 4.9796178e-16 -2.950707e-15 3.6755622e-13 1.7533207e+09
0.0056528361 0.003590089 -0.0036140208 1 3.4627097e-05 0.00056701252 -0.00019226277 1.7533207e+09
0.0014361013 0.002809223 -0.0051127123 2 0.00057662569 0.00097768405 0.00060186337 1.7533207e+09
0.18150538 0.01783957 -0.014296575 3 -0.0097062718 0.011816254 0.0040447558 1.7533207e+09
0.45652851 0.023371708 -0.016213933 4 -0.0074019176 0.01143181 0.027422154 1.7533207e+09
0.59107262 0.023410356 -0.013127592 5 -0.011981702 0.0034514577 0.0025451428 1.7533207e+09
0.91340715 0.030662118 -0.025707852 6 -0.012185915 0.019135671 0.0054543461 1.7533207e+09
1.1974198 0.040304866 -0.026839033 7 -0.0037644736 0.016163437 0.030485008 1.7533207e+09
1.6759952 0.058695327 -0.034551419 8 -0.027143605 0.01697731 0.021860255 1.7533207e+09
2.0526791 0.061130874 -0.037610814 9 -0.008632631 0.011497232 0.0417413 1.7533207e+09
2.4017398 0.072364308 -0.041855622 10 -0.0059546912 0.014004249 0.047303811 1.7533207e+09
2.7788391 0.089647144 -0.0406175 11 -0.010205911 0.010149799 0.049004026 1.7533207e+09
3.1690583 0.098043695 -0.041695021 12 -0.014055301 0.010615386 0.044374984 1.7533207e+09
3.5366616 0.12089182 -0.048589285 13 -0.00015922434 0.0078122099 0.04966177 1.7533207e+09
3.9742589 0.1529206 -0.050268333 14 -0.0089747515 0.01174482 0.058720998 1.7533207e+09
4.3901978 0.18128642 -0.051017724 15 -0.013874792 0.012766851 0.073821634 1.7533207e+09
4.8304014 0.21957572 -0.055581439 16 -0.0022367837 0.014081731 0.089506142 1.7533207e+09
5.2046795 0.25126031 -0.059420198 17 -0.0057556839 0.010539273 0.093296684 1.7533207e+09
5.6499567 0.28096569 -0.063659787 18 -0.010045554 0.011807382 0.094283529 1.7533207e+09
6.0622559 0.31475893 -0.069707394 19 0.0023874142 0.010691892 0.1044005 1.7533207e+09
6.4739127 0.35993016 -0.073751055 20 -0.0027498268 0.013806414 0.11385983 1.7533207e+09
6.9224558 0.41099942 -0.075886481 21 0.00066304213 0.020569867 0.1234826 1.7533207e+09
7.4092231 0.45902666 -0.07893344 22 -0.0086435117 0.022483179 0.12198094 1.7533207e+09
8.0043478 0.53934163 -0.086700238 23 -0.0099589825 0.011048634 0.14318959 1.7533207e+09
8.5035219 0.61908978 -0.091988876 24 -0.012940112 0.013373366 0.14680304 1.7533207e+09
8.8938046 0.67315078 -0.093063548 25 -0.0045071547 0.01549484 0.15124197 1.7533207e+09
9.2539759 0.73974186 -0.093285196 26 -0.017949993 0.012464745 0.15909629 1.7533207e+09
9.6690254 0.80773962 -0.093112491 27 -0.0023742495 0.005480858 0.17487757 1.7533208e+09
9.9914293 0.86344296 -0.0954891 28 -0.0098982966 0.0017569474 0.18571012 1.7533208e+09
10.258711 0.908077 -0.09594956 29 -0.0097853178 0.010853214 0.1804719 1.7533208e+09
10.475533 0.94728029 -0.096721709 30 -0.008210104 0.0044205128 0.1822506 1.7533208e+09
10.665772 0.97912037 -0.097196974 31 -0.004604903 0.0065896763 0.19017085 1.7533208e+09
10.733721 0.98781824 -0.094440058 32 0.0034321416 0.0016898368 0.20408991 1.7533208e+09
10.730233 0.99163061 -0.096265636 33 -0.0053028632 0.0051020221 0.15249276 1.7533208e+09
10.727413 0.98915607 -0.093078271 34 -0.00080906111 0.0035243547 0.14698806 1.7533208e+09
10.737908 1.0049236 -0.097608142 35 -0.011636462 0.010373256 0.1606739 1.7533208e+09
10.720782 0.99114227 -0.096399099 36 -0.0074318885 0.00074221933 0.10455736 1.7533208e+09
10.722426 0.99365437 -0.092753388 37 -0.0052681891 -0.00083969708 0.086582087 1.7533208e+09
10.731966 0.99423391 -0.092179522 38 -0.0051197754 -0.00021185895 0.087151222 1.7533208e+09
10.799583 1.0173306 -0.099287584 39 -0.024583435 -0.00086275802 0.092899635 1.7533208e+09
11.159693 1.0561672 -0.1102335 40 -0.00087618595 0.013370377 0.1019641 1.7533208e+09
11.431526 1.083016 -0.10510605 41 -0.0064495797 0.0070976624 0.10857621 1.7533208e+09
11.740581 1.110454 -0.1117762 42 -0.010607702 0.011064431 0.094213821 1.7533208e+09
12.039522 1.1304368 -0.11536168 43 -0.0094458424 0.010704619 0.08944089 1.7533208e+09
12.403812 1.1643302 -0.12043919 44 -0.0050804908 0.0076482291 0.099486358 1.7533208e+09
12.765115 1.1964899 -0.12431068 45 -0.0011100618 0.011407476 0.10095703 1.7533208e+09
13.142415 1.231732 -0.13301438 46 -0.0091357511 0.015293382 0.088384569 1.7533208e+09
13.547608 1.2716638 -0.13789943 47 -0.0071510277 0.016023859 0.11030473 1.7533208e+09
13.915945 1.3087777 -0.13892044 48 -0.00068759423 0.013744383 0.11375862 1.7533208e+09
14.36165 1.3598225 -0.14568792 49 -0.0040792092 0.016279787 0.12189401 1.7533208e+09
14.732133 1.397274 -0.15218374 50 -0.0080493968 0.016258262 0.11620537 1.7533208e+09
15.177997 1.454173 -0.15986075 51 -0.0021196641 0.017300278 0.14549863 1.7533208e+09
15.611718 1.5170609 -0.16409576 52 -0.0090138651 0.017397465 0.13826188 1.7533208e+09
16.045567 1.5801119 -0.16582838 53 -0.0029160762 0.016051875 0.15672231 1.7533208e+09
16.511858 1.6454958 -0.17131205 54 -0.014142592 0.023054991 0.14780256 1.7533208e+09
16.866411 1.7081974 -0.17393798 55 -0.0051614647 0.012427093 0.16603243 1.7533208e+09
17.229746 1.7623907 -0.17704476 56 -0.0048931795 0.010728977 0.16863921 1.7533208e+09
17.534189 1.8059487 -0.17302167 57 -0.0045048194 0.0096466402 0.16936527 1.7533208e+09
17.840439 1.8631066 -0.17435387 58 -0.0062102871 0.0090558557 0.16163145 1.7533208e+09
18.245188 1.9322468 -0.17625244 59 0.0021647336 0.011770581 0.18401614 1.7533208e+09
18.470114 1.9656123 -0.1770553 60 -0.00080068287 0.0069281971 0.17673285 1.7533208e+09
18.81146 2.0240448 -0.17973414 61 -0.0073508089 0.012590943 0.17213811 1.7533208e+09
19.154335 2.0971119 -0.18370935 62 0.006170942 0.016148018 0.19406986 1.7533208e+09
19.424728 2.1502459 -0.18211357 63 -3.070055e-05 0.011096535 0.19586492 1.7533208e+09
19.69206 2.2061203 -0.19389185 64 0.0040436308 0.014218554 0.21649641 1.7533208e+09
19.753162 2.2259796 -0.18901946 65 -0.0073822327 0.0025155705 0.21750212 1.7533208e+09
19.767796 2.2311237 -0.18674818 66 0.0043212068 0.0068330728 0.22328794 1.7533208e+09
19.899467 2.267498 -0.191164 67 0.0035117872 0.012348779 0.21998774 1.7533208e+09
20.005527 2.2985244 -0.18663062 68 0.0062680217 3.7167629e-05 0.23892932 1.7533208e+09
20.013464 2.3021445 -0.18619467 69 0.0086122695 0.0045204512 0.23955055 1.7533208e+09
20.001442 2.3254151 -0.18697162 70 0.0036189861 0.010035719 0.35069996 1.7533208e+09
19.977341 2.3494501 -0.18436071 71 0.0024687618 0.0012358252 0.55078709 1.7533208e+09
19.949911 2.365267 -0.18337259 72 0.0059556048 -0.003074734 0.7483319 1.7533208e+09
19.937447 2.369463 -0.18382688 73 0.015983269 -0.00056284491 0.80668986 1.7533208e+09
19.908617 2.3865514 -0.18183441 74 0.012067252 -0.0067775529 0.95188648 1.7533208e+09
19.900957 2.3871093 -0.17901763 75 0.013145729 -0.0080985753 0.95515263 1.7533208e+09
19.914436 2.4238613 -0.1842251 76 0.0061533242 -0.010055327 0.96149403 1.7533208e+09
20.037487 2.6014299 -0.18521869 77 0.005460558 -0.0012235 0.97482175 1.7533208e+09
20.126982 2.736752 -0.18504007 78 0.0011069721 -0.0015203959 0.97947884 1.7533208e+09
20.146282 2.7695992 -0.18504356 79 0.0078630708 -0.0096681155 0.97091126 1.7533208e+09
20.106594 2.7745507 -0.18418522 80 0.0047934824 -0.0084177032 1.1330235 1.7533208e+09
20.076546 2.773325 -0.18630728 81 0.0001489796 -0.0071918 1.2491544 1.7533208e+09
20.041872 2.7703252 -0.18532798 82 0.0018949624 -0.0082735196 1.4579062 1.7533208e+09
20.032854 2.7713463 -0.18776119 83 0.0089134444 -0.011129662 1.5482619 1.7533208e+09
20.033236 2.7767067 -0.1864872 84 0.0045963526 -0.011738764 1.5347219 1.7533208e+09
20.029375 2.783673 -0.18894951 85 0.0041390588 -0.011161746 1.5353161 1.7533208e+09
20.03343 2.7867098 -0.18570176 86 0.0029189084 -0.010768802 1.5365144 1.7533208e+09
20.033792 2.785733 -0.18655984 87 0.0028862476 -0.010551242 1.5370032 1.7533208e+09
20.020885 2.8051677 -0.19173637 88 -0.0050645559 -0.0018823118 1.5560207 1.7533208e+09
19.969486 3.1010582 -0.19354893 89 -0.031006658 -0.014142071 1.5295779 1.7533208e+09
19.969982 3.0993791 -0.19053377 90 0.00654737 -0.015526445 1.5459934 1.7533208e+09
19.97064 3.107769 -0.189767 91 0.0067919954 -0.014961165 1.5468581 1.7533208e+09
19.968925 3.1138957 -0.19060205 92 0.0071153077 -0.013687679 1.5478655 1.7533208e+09
19.972052 3.1186812 -0.1913871 93 0.0075699599 -0.013132012 1.5471914 1.7533208e+09
19.973732 3.117893 -0.19254328 94 0.010027983 -0.01563485 1.5449879 1.7533208e+09
19.980618 3.1074529 -0.18820906 95 0.002260277 -0.0088367863 1.4108316 1.7533208e+09
19.982141 3.1011283 -0.18635099 96 0.012677459 -0.0060153035 1.4071068 1.7533208e+09
19.978838 3.1457999 -0.1885567 97 0.0053359787 -0.0048247147 1.4057468 1.7533208e+09
20.005369 3.3224368 -0.18907736 98 -0.010799133 -6.3642561e-05 1.4017533 1.7533208e+09
20.021244 3.4273803 -0.18814693 99 -0.00080803368 -0.0036506609 1.4054489 1.7533208e+09
20.053946 3.5874655 -0.18882155 100 -0.0019227376 -0.0040535084 1.4033056 1.7533208e+09
20.082979 3.7598906 -0.18825386 101 -0.0062616724 -0.0019740821 1.4094002 1.7533208e+09
20.113068 3.8946185 -0.18989845 102 0.0029926815 1.7319926e-05 1.3997933 1.7533208e+09
20.117853 4.0154247 -0.18879157 103 0.0041621053 -0.0055512963 1.3930051 1.7533208e+09
20.078835 4.0163212 -0.18908942 104 0.0007104025 -0.0050003142 1.607879 1.7533208e+09
20.071642 4.0265436 -0.18719666 105 0.0052909357 0.00045036053 1.6282438 1.7533208e+09
20.05069 4.2959208 -0.19184949 106 -0.0001513654 0.0034542547 1.6066511 1.7533208e+09
20.029938 4.6500673 -0.19074492 107 -0.00039060268 -0.0015916781 1.6260657 1.7533208e+09
20.016136 4.9855638 -0.18974845 108 -0.0080270618 2.6844558e-05 1.6182088 1.7533208e+09
20.005342 5.2032671 -0.18980898 109 0.0064906427 0.0011799434 1.6164671 1.7533208e+09
19.988596 5.5311923 -0.1981114 110 -0.00690798 0.0067536482 1.6179631 1.7533208e+09
19.96517 5.9824162 -0.20063071 111 0.0074032447 0.0083929263 1.6461527 1.7533208e+09
19.948158 6.2529454 -0.19843425 112 0.017429762 -0.0015370839 1.6536945 1.7533208e+09
19.91251 6.5687423 -0.20640068 113 -0.0046534101 0.014166119 1.6374284 1.7533208e+09
19.874893 7.027576 -0.20579015 114 0.009261407 0.0075209062 1.6732674 1.7533208e+09
19.872503 7.2335291 -0.20208433 115 0.034140993 -0.0045523704 1.6891963 1.7533208e+09
19.848307 7.2080894 -0.19357337 116 -0.028745975 -0.019435337 1.5902928 1.7533209e+09
19.859968 7.2090287 -0.19874534 117 0.0075960541 0.0044814283 1.5253356 1.7533209e+09
19.852983 7.3565087 -0.20476145 118 -0.015878033 0.0082910191 1.519605 1.7533209e+09
19.863222 7.5617218 -0.20565355 119 0.0013537579 0.0013100744 1.5283022 1.7533209e+09
19.88393 7.7960277 -0.20726314 120 -0.0057357582 0.0083785104 1.5123351 1.7533209e+09
19.896919 8.0534096 -0.20924047 121 -0.0011399486 0.0058710957 1.5097796 1.7533209e+09
19.916246 8.3647509 -0.21149436 122 0.0006346195 0.012805582 1.5317286 1.7533209e+09
19.93273 8.5218649 -0.20778222 123 0.00069144147 0.00047807448 1.5255978 1.7533209e+09
19.940136 8.7408066 -0.21736354 124 -0.0014473379 0.0020308825 1.517796 1.7533209e+09
19.955065 9.0758877 -0.2157242 125 0.0080145355 0.0038605181 1.544 1.7533209e+09
19.969269 9.3709707 -0.21922682 126 0.0078199059 0.0023166549 1.5341235 1.7533209e+09
19.970711 9.5974751 -0.21933199 127 0.0014841218 0.0052302056 1.5516404 1.7533209e+09
19.97699 9.7172585 -0.21929117 128 0.0072686109 -0.0039268211 1.551 1.7533209e+09
19.970446 10.027156 -0.22746193 129 -0.0095492722 0.013662871 1.5310562 1.7533209e+09
19.981443 10.266263 -0.22888093 130 -0.00035875328 0.0078742104 1.5523002 1.7533209e+09
19.986425 10.563135 -0.23257044 131 -0.0063603013 0.0087653603 1.5420146 1.7533209e+09
19.997206 10.859183 -0.23798031 132 -0.0032258385 0.010907657 1.5480624 1.7533209e+09
20.001842 11.154746 -0.24489509 133 -0.0074690562 0.010841017 1.5489324 1.7533209e+09
20.013412 11.358209 -0.24451864 134 -0.0013564938 0.0094129601 1.5504677 1.7533209e+09
20.008188 11.480434 -0.24980707 135 -0.0026684187 0.0037817443 1.5582882 1.7533209e+09
20.009766 11.798849 -0.24896662 136 0.00099580095 0.0049826158 1.5617613 1.7533209e+09
20.023401 12.105375 -0.2498153 137 -3.4539866e-05 0.003796082 1.5668526 1.7533209e+09
20.030766 12.366051 -0.25203636 138 -0.010953029 0.0042439196 1.5459872 1.7533209e+09
20.030865 12.703724 -0.25653812 139 -0.0055439868 0.0058760457 1.5617794 1.7533209e+09
20.032297 13.070145 -0.25413308 140 0.0031761474 0.010885911 1.574531 1.7533209e+09
20.027708 13.532786 -0.26466709 141 -0.0085369889 0.021812778 1.5639299 1.7533209e+09
20.02846 13.993758 -0.26669002 142 0.0086183921 0.019163409 1.5815729 1.7533209e+09
20.035355 14.434319 -0.27575061 143 0.0031938427 0.015021588 1.5832235 1.7533209e+09
20.027817 14.880239 -0.27139917 144 -0.0042967778 0.012866783 1.5842662 1.7533209e+09
20.019918 15.306791 -0.28010669 145 0.0077491412 0.012626124 1.6018147 1.7533209e+09
20.012188 15.660848 -0.28258497 146 -0.0010223173 0.014891942 1.6067351 1.7533209e+09
19.997944 15.892914 -0.28448293 147 -0.010787548 0.0073521184 1.604488 1.7533209e+09
19.976643 16.353302 -0.29550943 148 0.0059693162 0.015275608 1.6189561 1.7533209e+09
19.95714 16.813301 -0.29884282 149 0.0097457571 0.015162019 1.628457 1.7533209e+09
19.931007 17.208019 -0.30540806 150 0.0024107699 0.015557639 1.6313949 1.7533209e+09
19.908079 17.676357 -0.31197587 151 -0.0085242437 0.018019658 1.632018 1.7533209e+09
19.885218 18.066633 -0.31732485 152 0.00029174067 0.014293646 1.6423068 1.7533209e+09
19.844872 18.603607 -0.32770199 153 -0.010803128 0.021200567 1.6412084 1.7533209e+09
19.85519 18.768524 -0.31546929 154 0.020250943 -0.024421208 1.6594386 1.7533209e+09
19.827452 18.757334 -0.32097408 155 -0.019205762 0.0064062122 1.675732 1.7533209e+09
19.823769 18.761988 -0.31733331 156 -0.0025727721 0.0085232025 1.5914108 1.7533209e+09
19.820831 18.769487 -0.31813315 157 0.017306089 -0.0038256799 1.598543 1.7533209e+09
19.797955 19.148975 -0.33024788 158 -0.002694251 0.0085943127 1.5767815 1.7533209e+09
19.78953 19.605419 -0.33526856 159 0.0050657461 0.0061921864 1.5924232 1.7533209e+09
19.782396 19.969538 -0.33781689 160 0.0036077655 0.0086053405 1.5998266 1.7533209e+09
19.774086 20.441088 -0.34545997 161 -0.0036442669 0.01026888 1.5940899 1.7533209e+09
19.76816 20.809858 -0.3476519 162 -0.0030598002 0.008687024 1.5943204 1.7533209e+09
19.759726 21.256922 -0.34960502 163 -0.0014753587 0.0073162667 1.5913531 1.7533209e+09
19.752123 21.694956 -0.35337415 164 0.0023795771 0.0064777429 1.5926137 1.7533209e+09
19.744408 22.113722 -0.35621107 165 -0.0072387452 0.010424729 1.5890231 1.7533209e+09
19.735361 22.482077 -0.35741398 166 -0.00094780046 0.010901898 1.6024014 1.7533209e+09
19.727268 22.783369 -0.35800579 167 -0.0008315107 0.00741609 1.6146672 1.7533209e+09
19.714787 23.102892 -0.36563155 168 -0.0035794482 0.011916598 1.6037532 1.7533209e+09
19.698574 23.382101 -0.37232476 169 -0.0018458033 0.013611774 1.6144116 1.7533209e+09
19.676762 23.82789 -0.37666458 170 0.0080707986 0.019217197 1.6275456 1.7533209e+09
19.657478 23.988468 -0.37317547 171 -0.0086730877 0.01251146 1.6372328 1.7533209e+09
19.641691 24.249056 -0.3756479 172 -0.010529971 0.013478855 1.6360433 1.7533209e+09
19.603849 24.751223 -0.38253796 173 0.00046948143 0.016389824 1.6376201 1.7533209e+09
19.575781 25.025084 -0.37484345 174 0.017201902 -0.001691695 1.6455144 1.7533209e+09
19.587503 25.020187 -0.37815878 175 0.014849135 0.0060287556 1.5811907 1.7533209e+09
19.580622 25.018669 -0.37523225 176 0.0094083585 0.010969021 1.5115157 1.7533209e+09
19.566315 25.091043 -0.37769541 177 -0.013019493 0.0064204824 1.5116278 1.7533209e+09
19.58366 25.440502 -0.38964719 178 0.0014325228 0.016767716 1.5297325 1.7533209e+09
19.592922 25.691679 -0.3815254 179 -0.00050989538 0.0084577268 1.528381 1.7533209e+09
19.59897 25.762827 -0.39106992 180 -0.0026600463 0.015543841 1.5194168 1.7533209e+09
19.59971 26.154907 -0.39283741 181 0.0013683912 0.017465308 1.5162557 1.7533209e+09
19.621325 26.488026 -0.39395633 182 -0.00068223069 0.011643223 1.5157082 1.7533209e+09
19.620693 26.625805 -0.39784446 183 -0.00033987715 0.016607393 1.5184432 1.7533209e+09
19.641022 27.034739 -0.41147912 184 -0.0066510867 0.021991748 1.5085052 1.7533209e+09
19.649902 27.319664 -0.40894818 185 -0.011113179 0.01439462 1.5147749 1.7533209e+09
19.678057 27.663658 -0.4139539 186 0.018854531 0.016524479 1.5470302 1.7533209e+09
19.674404 28.049555 -0.41925055 187 0.0038017097 0.018941285 1.5351661 1.7533209e+09
19.680704 28.611591 -0.43667203 188 0.0025404962 0.026462197 1.5557188 1.7533209e+09
19.684782 29.097765 -0.44983593 189 0.011046096 0.024282785 1.560251 1.7533209e+09
19.668301 29.577614 -0.45924377 190 0.00092008989 0.01751597 1.552678 1.7533209e+09
19.670067 30.094133 -0.45954064 191 0.001485498 0.013983333 1.5629008 1.7533209e+09
19.647987 30.5194 -0.47156584 192 -0.002099718 0.01339762 1.5800645 1.7533209e+09
19.628479 30.955574 -0.47991973 193 0.0066170781 0.012468061 1.5905958 1.7533209e+09
19.600012 31.470039 -0.48986039 194 0.015384204 0.011268846 1.5998472 1.7533209e+09
19.573143 31.902365 -0.49499905 195 0.0065322439 0.016215177 1.6039499 1.7533209e+09
19.541628 32.35741 -0.49590304 196 0.0047703651 0.017435184 1.6025767 1.7533209e+09
19.509995 32.804577 -0.51205993 197 0.0048530186 0.016435081 1.607408 1.7533209e+09
19.493383 33.289341 -0.5286634 198 0.013512388 0.016780734 1.6262316 1.7533209e+09
19.458708 33.792007 -0.53259218 199 0.0059803734 0.017502824 1.6172075 1.7533209e+09
19.422661 34.359943 -0.54412287 200 0.018581217 0.026251759 1.6353348 1.7533209e+09
19.390759 34.856499 -0.54947788 201 -0.0052263536 0.016914269 1.622516 1.7533209e+09
19.369553 35.261868 -0.55267704 202 0.013611265 0.021638909 1.6344836 1.7533209e+09
19.344318 35.777889 -0.56311947 203 0.0053569605 0.023293342 1.627043 1.7533209e+09
19.312115 36.300861 -0.57992393 204 0.031324591 0.023594834 1.6384323 1.7533209e+09
19.254419 36.854855 -0.57990927 205 0.015310009 0.017243547 1.628704 1.753321e+09
19.248142 37.326748 -0.57867485 206 0.019424461 0.014223143 1.6330954 1.753321e+09
19.229992 37.396404 -0.57125664 207 0.017279685 0.00069040229 1.6294773 1.753321e+09
19.228647 37.399933 -0.57012051 208 0.015995001 0.00070367852 1.6285285 1.753321e+09
19.229214 37.405811 -0.57251221 209 0.015375787 0.00095762708 1.6273121 1.753321e+09
19.217911 37.420395 -0.57455969 210 0.016848985 0.011198224 1.6462356 1.753321e+09
19.173275 37.816586 -0.56366128 211 0.025131166 0.023586098 1.6272664 1.753321e+09
19.151161 37.902596 -0.57695222 212 0.023897052 0.0085206507 1.6239339 1.753321e+09
19.120649 38.075397 -0.58030707 213 0.026714182 0.0066435048 1.635981 1.753321e+09
19.074297 38.370098 -0.58720773 214 0.027112819 0.0057840757 1.6343154 1.753321e+09
19.054527 38.374817 -0.58352202 215 0.010341387 0.012958775 1.6387765 1.753321e+09
19.019346 38.433273 -0.58056009 216 0.0054045669 0.015953543 1.6158957 1.753321e+09
18.997957 38.60199 -0.58744586 217 0.0016792557 0.025292218 1.6058203 1.753321e+09
18.991358 38.611435 -0.57916063 218 0.025153443 0.011729546 1.6110619 1.753321e+09
18.9907 38.616035 -0.58412313 219 0.025581488 0.013877083 1.6113535 1.753321e+09
18.931383 38.600536 -0.58349568 220 0.012750249 0.013325872 1.8882276 1.753321e+09
18.897772 38.570557 -0.57728708 221 0.016185684 0.0037166991 2.1423604 1.753321e+09
18.872879 38.537846 -0.57453477 222 0.01626803 -0.0059778783 2.3972099 1.753321e+09
18.857887 38.500259 -0.56978005 223 0.0087843118 -0.018164776 2.6384218 1.753321e+09
18.848339 38.460121 -0.57115614 224 0.010100858 -0.022993965 2.8421609 1.753321e+09
18.841194 38.460571 -0.57221317 225 0.019368952 -0.023563789 2.8335042 1.753321e+09
18.836979 38.459595 -0.57194614 226 0.019791085 -0.022313911 2.8353972 1.753321e+09
18.822248 38.442093 -0.57402486 227 0.014648071 -0.010856524 2.8866227 1.753321e+09
18.819914 38.432869 -0.57562655 228 0.017705658 -0.026074694 2.9306693 1.753321e+09
18.802624 38.433746 -0.57169324 229 0.019126773 -0.027163148 2.918668 1.753321e+09
18.70875 38.443779 -0.57871485 230 0.0091547221 -0.017253799 2.926616 1.753321e+09
18.390162 38.508289 -0.5763464 231 0.014392608 -0.0048568035 2.9401433 1.753321e+09
18.40102 38.468201 -0.56660849 232 0.010154819 -0.019018563 3.0459349 1.753321e+09
18.400698 38.464798 -0.56549501 233 0.016725505 -0.025275536 3.0503068 1.753321e+09
18.396908 38.440548 -0.56630939 234 -0.0035266308 -0.027322974 3.0881608 1.753321e+09
18.408026 38.432991 -0.56537962 235 0.014594766 -0.02933646 3.1358593 1.753321e+09
18.30056 38.421719 -0.57212406 236 0.0055830516 -0.022433385 -3.1358471 1.753321e+09
17.836458 38.398949 -0.5687086 237 0.019327655 -0.024113474 -3.1102717 1.753321e+09
17.524889 38.388432 -0.56158471 238 0.015415034 -0.02051774 -3.111306 1.753321e+09
17.401316 38.369564 -0.55233312 239 0.0011547016 -0.032519229 -3.1150889 1.753321e+09
17.40822 38.368191 -0.54516178 240 0.0085293669 -0.02582743 -3.103626 1.753321e+09
17.393497 38.3713 -0.54786354 241 0.016843397 -0.026629018 3.0694804 1.753321e+09
17.38772 38.376377 -0.54692429 242 0.019843487 -0.020778717 3.0292213 1.753321e+09
17.291054 38.383553 -0.55072087 243 0.019731954 -0.018188499 3.0389376 1.753321e+09
16.829786 38.419025 -0.55779749 244 0.026195047 -0.012518178 3.0574389 1.753321e+09
16.422262 38.460529 -0.53715944 245 0.015742615 -0.01921561 3.0602574 1.753321e+09
16.122343 38.491432 -0.53588402 246 0.0065397974 -0.014281101 3.0498879 1.753321e+09
15.761367 38.518963 -0.52548438 247 0.010382744 -0.012570625 3.0593984 1.753321e+09
15.261597 38.561859 -0.52487981 248 0.013840662 -0.011069229 3.0568178 1.753321e+09
14.883068 38.596409 -0.51530355 249 0.015108486 -0.0072876741 3.0620985 1.753321e+09
14.550081 38.61385 -0.49959928 250 0.013118306 -0.0083114961 3.0798461 1.753321e+09
14.423779 38.620277 -0.49144456 251 0.013936153 -0.020131798 3.0972543 1.753321e+09
14.429153 38.606979 -0.49193636 252 0.011340003 -0.029586669 3.1193435 1.753321e+09
14.367929 38.603622 -0.49292704 253 0.016725188 -0.017169179 -3.1235704 1.753321e+09
14.036837 38.587757 -0.489191 254 0.020356752 -0.0094054621 -3.1165481 1.753321e+09
13.610682 38.585274 -0.48306593 255 0.012459009 -0.012702509 -3.1206312 1.753321e+09
13.25081 38.574509 -0.47477478 256 0.021924919 -0.017609606 -3.1153958 1.753321e+09
12.94196 38.560169 -0.46758306 257 0.019911382 -0.019198503 -3.1097987 1.753321e+09
12.511387 38.542355 -0.46575701 258 0.02745208 -0.015095173 -3.0837264 1.753321e+09
11.977757 38.502789 -0.45725939 259 0.02714316 -0.015639467 -3.0804849 1.753321e+09
11.487473 38.456032 -0.44149441 260 0.013362797 -0.025466107 -3.0649967 1.753321e+09
11.06245 38.411407 -0.42970306 261 0.013866519 -0.021711605 -3.0573654 1.753321e+09
10.597757 38.371342 -0.41738033 262 0.022824531 -0.02372857 -3.0494552 1.753321e+09
10.153775 38.33223 -0.40438166 263 0.011912975 -0.017611424 -3.0477645 1.753321e+09
9.6530457 38.270859 -0.40004286 264 -0.00043306424 -0.014773565 -3.0369451 1.753321e+09
9.1049318 38.191559 -0.38865352 265 0.00090861332 -0.022094641 -3.0067298 1.753321e+09
8.47682 38.082043 -0.37298489 266 0.0018105056 -0.025847774 -2.9886646 1.753321e+09
7.9408727 37.978733 -0.36118999 267 0.008316556 -0.022136454 -2.9440987 1.753321e+09
7.4336276 37.85915 -0.34789991 268 0.0031687182 -0.024826001 -2.9436686 1.753321e+09
6.9821162 37.743469 -0.3401807 269 0.005926678 -0.017579904 -2.9060473 1.753321e+09
6.8547511 37.71209 -0.32028934 270 -0.001363241 -0.027263677 -2.9113514 1.753321e+09
6.8818326 37.645447 -0.32938299 271 -0.018778751 -0.015633918 -2.5656497 1.753321e+09
6.9258261 37.615753 -0.32169813 272 -0.012447356 -0.016894953 -2.1525354 1.753321e+09
6.9560142 37.597698 -0.32461283 273 -0.023454146 -0.013620676 -1.9376928 1.753321e+09
7.0029764 37.572659 -0.32198629 274 -0.031623427 -0.023811275 -1.8019811 1.753321e+09
7.0431151 37.572292 -0.32206258 275 -0.035706695 -0.022168063 -1.5951706 1.753321e+09
7.0662961 37.558826 -0.32080847 276 -0.023476537 -0.023912296 -1.5550859 1.753321e+09
7.0731263 37.562424 -0.31852242 277 -0.024866153 -0.022462167 -1.5542169 1.753321e+09
7.0781178 37.556896 -0.32552704 278 -0.025461538 -0.024369564 -1.5540984 1.753321e+09
7.1651955 36.915722 -0.35223225 279 -0.038791198 -0.016000099 -1.5149367 1.753321e+09
7.2567677 36.493626 -0.32670164 280 -0.0045265779 -0.046620246 -1.5321114 1.753321e+09
7.2387877 36.423271 -0.32955295 281 -0.0025396757 -0.0070712124 -1.5220144 1.753321e+09
7.2618394 36.088848 -0.31866398 282 -0.021772828 -0.011703567 -1.5328114 1.753321e+09
7.268095 35.854088 -0.32131377 283 -0.024388354 -0.010124726 -1.5287595 1.753321e+09
7.2790236 35.570568 -0.31309783 284 -0.024417968 -0.012949306 -1.5166402 1.753321e+09
7.2888131 35.334137 -0.30505764 285 -0.023548031 -0.014602119 -1.5152363 1.753321e+09
7.2979789 35.077995 -0.30502975 286 -0.025333218 -0.014489346 -1.5183173 1.753321e+09
7.3123302 34.778152 -0.29942349 287 -0.021575708 -0.014808294 -1.5236814 1.753321e+09
7.3235135 34.533592 -0.29635277 288 -0.025088483 -0.011988685 -1.5186104 1.753321e+09
7.3340559 34.213772 -0.29341564 289 -0.032404035 -0.011233632 -1.5253505 1.753321e+09
